NORM_ASCII
6651 13302
3 5002 5124 4998 
3 4999 4998 5124 
3 5123 4999 5124 
3 5009 5125 5000 
3 5126 5000 5125 
3 5001 5000 5126 
3 5127 5001 5126 
3 5002 5001 5127 
3 5002 5127 5128 
3 5002 5128 5124 
3 5012 5129 5003 
3 5004 5003 5129 
3 5004 5129 5130 
3 5004 5130 5005 
3 5006 5005 5131 
3 5130 5131 5005 
3 5006 5132 5007 
3 5006 5131 5132 
3 5132 5133 5007 
3 5007 5134 5008 
3 5007 5133 5134 
3 5010 5008 5134 
3 5009 5010 5125 
3 5136 5135 5010 
3 5010 5135 5125 
3 5136 5010 5134 
3 5011 5013 5137 
3 5139 5138 5011 
3 5012 5011 5138 
3 5139 5011 5137 
3 5012 5138 5129 
3 5140 5137 5013 
3 5014 5140 5013 
3 5014 5141 5140 
3 5015 5142 5014 
3 5014 5142 5141 
3 5142 5015 5143 
3 5144 5015 5016 
3 5143 5015 5144 
3 5016 5017 5018 
3 5016 5145 5144 
3 5016 5018 5146 
3 5016 5146 5145 
3 5108 5146 5018 
3 5049 5020 5021 
3 5021 5022 5049 
3 5022 5026 5147 
3 5049 5022 5147 
3 5024 5023 5029 
3 5024 5029 5025 
3 5025 5029 5148 
3 5149 5025 5148 
3 5149 5026 5025 
3 5149 5150 5026 
3 5147 5026 5150 
3 5121 5028 5027 
3 5121 5151 5028 
3 5148 5028 5151 
3 5148 5029 5028 
3 5058 5030 5031 
3 5031 5032 5033 
3 5058 5031 5033 
3 5058 5033 5152 
3 5033 5034 5035 
3 5033 5035 5153 
3 5152 5033 5153 
3 5036 5153 5035 
3 5154 5153 5036 
3 5037 5155 5036 
3 5154 5036 5155 
3 5039 5155 5037 
3 5039 5038 5156 
3 5038 5046 5156 
3 5039 5157 5155 
3 5039 5158 5157 
3 5039 5159 5158 
3 5039 5156 5159 
3 5040 5048 5160 
3 5041 5040 5160 
3 5041 5160 5042 
3 5042 5161 5043 
3 5160 5162 5042 
3 5161 5042 5162 
3 5163 5043 5161 
3 5043 5163 5044 
3 5044 5163 5164 
3 5165 5044 5164 
3 5045 5044 5165 
3 5045 5165 5166 
3 5045 5166 5047 
3 5046 5167 5156 
3 5046 5168 5167 
3 5046 5047 5168 
3 5166 5168 5047 
3 5160 5048 5162 
3 5162 5048 5054 
3 5147 5169 5049 
3 5049 5169 5050 
3 5051 5050 5169 
3 5169 5170 5051 
3 5051 5170 5171 
3 5051 5171 5052 
3 5172 5052 5171 
3 5172 5173 5052 
3 5174 5052 5173 
3 5053 5052 5174 
3 5053 5175 5054 
3 5053 5174 5175 
3 5176 5054 5175 
3 5176 5162 5054 
3 5061 5055 5177 
3 5056 5177 5055 
3 5178 5177 5056 
3 5056 5179 5178 
3 5057 5180 5056 
3 5179 5056 5180 
3 5181 5057 5058 
3 5182 5180 5057 
3 5181 5182 5057 
3 5181 5058 5152 
3 5066 5183 5059 
3 5059 5183 5076 
3 5067 5060 5061 
3 5061 5184 5067 
3 5061 5177 5184 
3 5062 5068 5185 
3 5062 5185 5063 
3 5185 5186 5063 
3 5186 5064 5063 
3 5188 5187 5064 
3 5065 5064 5187 
3 5188 5064 5186 
3 5187 5189 5065 
3 5066 5065 5189 
3 5066 5189 5190 
3 5066 5190 5183 
3 5191 5067 5184 
3 5067 5191 5068 
3 5191 5192 5068 
3 5068 5192 5193 
3 5068 5193 5185 
3 5077 5070 5069 
3 5077 5194 5070 
3 5070 5194 5195 
3 5070 5195 5071 
3 5071 5195 5196 
3 5197 5071 5196 
3 5197 5072 5071 
3 5197 5073 5072 
3 5197 5198 5073 
3 5199 5073 5198 
3 5199 5074 5073 
3 5200 5074 5199 
3 5074 5200 5087 
3 5075 5074 5087 
3 5076 5183 5201 
3 5078 5076 5201 
3 5078 5202 5077 
3 5077 5202 5203 
3 5077 5203 5194 
3 5078 5201 5202 
3 5079 5086 5204 
3 5079 5204 5205 
3 5079 5205 5083 
3 5206 5084 5080 
3 5081 5206 5080 
3 5207 5081 5082 
3 5208 5206 5081 
3 5207 5208 5081 
3 5082 5083 5207 
3 5083 5205 5207 
3 5092 5084 5206 
3 5088 5209 5085 
3 5085 5209 5086 
3 5210 5086 5209 
3 5204 5086 5210 
3 5088 5087 5211 
3 5212 5087 5200 
3 5212 5211 5087 
3 5088 5211 5209 
3 5119 5118 5089 
3 5118 5213 5089 
3 5090 5119 5089 
3 5104 5089 5213 
3 5100 5119 5090 
3 5098 5091 5214 
3 5214 5091 5092 
3 5092 5215 5214 
3 5092 5206 5215 
3 5217 5216 5093 
3 5216 5099 5093 
3 5217 5093 5094 
3 5219 5094 5218 
3 5217 5094 5219 
3 5094 5220 5218 
3 5094 5221 5220 
3 5095 5221 5094 
3 5095 5222 5221 
3 5095 5096 5222 
3 5096 5223 5222 
3 5096 5224 5223 
3 5096 5097 5224 
3 5098 5224 5097 
3 5215 5098 5214 
3 5215 5225 5098 
3 5098 5225 5224 
3 5102 5099 5216 
3 5116 5119 5100 
3 5116 5100 5226 
3 5100 5101 5226 
3 5102 5226 5101 
3 5227 5226 5102 
3 5102 5228 5227 
3 5102 5216 5228 
3 5107 5103 5120 
3 5104 5120 5103 
3 5103 5107 5106 
3 5103 5106 5105 
3 5104 5213 5120 
3 5108 5229 5146 
3 5108 5109 5229 
3 5109 5111 5230 
3 5232 5231 5109 
3 5232 5109 5230 
3 5109 5231 5229 
3 5233 5111 5110 
3 5233 5110 5234 
3 5112 5234 5110 
3 5230 5111 5235 
3 5233 5235 5111 
3 5236 5234 5112 
3 5237 5236 5112 
3 5237 5112 5113 
3 5113 5114 5237 
3 5237 5114 5238 
3 5238 5114 5115 
3 5238 5115 5239 
3 5115 5240 5239 
3 5115 5117 5240 
3 5116 5226 5117 
3 5241 5240 5117 
3 5227 5117 5226 
3 5241 5117 5227 
3 5118 5120 5213 
3 5242 5121 5122 
3 5242 5151 5121 
3 5123 5243 5122 
3 5242 5122 5243 
3 5123 5124 5243 
3 5244 5124 5128 
3 5243 5124 5244 
3 5246 5125 5245 
3 5125 5135 5245 
3 5126 5125 5246 
3 5247 5126 5246 
3 5127 5126 5247 
3 5128 5127 5247 
3 5128 5247 5248 
3 5249 5128 5248 
3 5244 5128 5249 
3 5138 5250 5129 
3 5250 5130 5129 
3 5250 5251 5130 
3 5251 5252 5130 
3 5130 5252 5131 
3 5131 5252 5253 
3 5131 5133 5132 
3 5131 5253 5133 
3 5133 5254 5134 
3 5133 5255 5254 
3 5253 5256 5133 
3 5133 5256 5255 
3 5136 5134 5254 
3 5245 5135 5136 
3 5257 5245 5136 
3 5136 5258 5257 
3 5136 5254 5258 
3 5140 5259 5137 
3 5259 5260 5137 
3 5139 5137 5260 
3 5138 5139 5261 
3 5138 5261 5250 
3 5261 5139 5260 
3 5140 5263 5262 
3 5263 5140 5141 
3 5140 5262 5264 
3 5140 5264 5259 
3 5263 5141 5265 
3 5142 5265 5141 
3 5142 5143 5265 
3 5265 5143 5266 
3 5143 5144 5267 
3 5143 5267 5268 
3 5143 5268 5266 
3 5267 5144 5145 
3 5146 5269 5145 
3 5270 5145 5269 
3 5270 5267 5145 
3 5271 5146 5229 
3 5271 5269 5146 
3 5147 5150 5272 
3 5147 5272 5169 
3 5148 5151 5273 
3 5149 5148 5273 
3 5273 5274 5149 
3 5275 5149 5274 
3 5275 5150 5149 
3 5275 5276 5150 
3 5276 5170 5150 
3 5150 5170 5272 
3 5242 5277 5151 
3 5277 5273 5151 
3 5181 5152 5278 
3 5279 5278 5152 
3 5152 5153 5279 
3 5279 5153 5280 
3 5153 5154 5280 
3 5154 5281 5280 
3 5154 5155 5281 
3 5155 5157 5281 
3 5167 5159 5156 
3 5280 5281 5157 
3 5282 5280 5157 
3 5158 5282 5157 
3 5158 5283 5282 
3 5158 5284 5283 
3 5285 5284 5158 
3 5285 5158 5159 
3 5159 5286 5285 
3 5159 5167 5286 
3 5176 5163 5161 
3 5176 5161 5162 
3 5176 5287 5163 
3 5287 5164 5163 
3 5288 5164 5287 
3 5289 5165 5164 
3 5288 5289 5164 
3 5166 5165 5289 
3 5290 5166 5289 
3 5290 5168 5166 
3 5286 5167 5291 
3 5292 5167 5168 
3 5292 5291 5167 
3 5292 5168 5290 
3 5169 5272 5170 
3 5276 5293 5170 
3 5171 5170 5293 
3 5172 5171 5293 
3 5293 5294 5172 
3 5295 5172 5294 
3 5295 5173 5172 
3 5296 5174 5173 
3 5296 5173 5295 
3 5297 5174 5296 
3 5298 5175 5174 
3 5298 5174 5297 
3 5300 5175 5299 
3 5176 5175 5300 
3 5298 5299 5175 
3 5176 5300 5301 
3 5176 5301 5287 
3 5177 5302 5184 
3 5177 5178 5302 
3 5178 5179 5302 
3 5303 5302 5179 
3 5304 5179 5180 
3 5304 5303 5179 
3 5304 5180 5182 
3 5181 5278 5182 
3 5304 5182 5305 
3 5306 5305 5182 
3 5306 5182 5278 
3 5307 5183 5190 
3 5307 5201 5183 
3 5308 5191 5184 
3 5184 5309 5308 
3 5184 5302 5309 
3 5185 5193 5186 
3 5193 5310 5186 
3 5188 5186 5310 
3 5311 5187 5188 
3 5311 5312 5187 
3 5187 5312 5189 
3 5311 5188 5310 
3 5190 5189 5312 
3 5307 5190 5313 
3 5314 5190 5312 
3 5313 5190 5314 
3 5308 5192 5191 
3 5193 5192 5315 
3 5192 5316 5315 
3 5308 5316 5192 
3 5317 5193 5315 
3 5317 5310 5193 
3 5194 5203 5318 
3 5194 5318 5195 
3 5320 5319 5195 
3 5320 5195 5318 
3 5321 5195 5319 
3 5321 5196 5195 
3 5321 5322 5196 
3 5197 5196 5322 
3 5197 5322 5198 
3 5198 5322 5323 
3 5324 5198 5323 
3 5199 5198 5324 
3 5325 5199 5324 
3 5325 5200 5199 
3 5325 5326 5200 
3 5326 5327 5200 
3 5200 5327 5212 
3 5307 5328 5201 
3 5201 5328 5202 
3 5329 5202 5328 
3 5202 5329 5318 
3 5202 5318 5203 
3 5204 5210 5330 
3 5331 5205 5204 
3 5330 5332 5204 
3 5331 5204 5332 
3 5331 5207 5205 
3 5208 5215 5206 
3 5207 5333 5208 
3 5207 5331 5333 
3 5215 5208 5225 
3 5334 5225 5208 
3 5334 5208 5335 
3 5208 5333 5335 
3 5211 5336 5209 
3 5210 5209 5336 
3 5210 5336 5337 
3 5210 5338 5330 
3 5210 5337 5338 
3 5212 5327 5211 
3 5339 5211 5327 
3 5339 5340 5211 
3 5336 5211 5340 
3 5228 5216 5217 
3 5228 5217 5219 
3 5219 5218 5220 
3 5341 5228 5219 
3 5219 5342 5341 
3 5342 5219 5220 
3 5342 5220 5343 
3 5344 5343 5220 
3 5220 5222 5344 
3 5220 5221 5222 
3 5345 5344 5222 
3 5223 5345 5222 
3 5223 5346 5345 
3 5347 5346 5223 
3 5348 5223 5224 
3 5347 5223 5348 
3 5348 5224 5225 
3 5349 5348 5225 
3 5225 5350 5349 
3 5351 5350 5225 
3 5334 5351 5225 
3 5241 5227 5228 
3 5341 5241 5228 
3 5352 5271 5229 
3 5352 5229 5231 
3 5232 5230 5235 
3 5232 5352 5231 
3 5353 5352 5232 
3 5354 5353 5232 
3 5355 5232 5235 
3 5355 5354 5232 
3 5355 5233 5356 
3 5233 5234 5236 
3 5233 5236 5356 
3 5233 5355 5235 
3 5236 5357 5356 
3 5237 5357 5236 
3 5237 5358 5357 
3 5358 5237 5238 
3 5358 5238 5239 
3 5358 5239 5359 
3 5359 5239 5360 
3 5239 5240 5360 
3 5361 5360 5240 
3 5361 5240 5241 
3 5361 5241 5341 
3 5242 5243 5277 
3 5243 5244 5362 
3 5243 5362 5277 
3 5244 5249 5363 
3 5244 5363 5362 
3 5364 5246 5245 
3 5364 5245 5365 
3 5257 5365 5245 
3 5364 5366 5246 
3 5366 5247 5246 
3 5366 5367 5247 
3 5367 5368 5247 
3 5368 5248 5247 
3 5369 5248 5368 
3 5369 5249 5248 
3 5363 5249 5369 
3 5370 5250 5261 
3 5370 5251 5250 
3 5370 5371 5251 
3 5371 5252 5251 
3 5371 5372 5252 
3 5372 5253 5252 
3 5256 5253 5372 
3 5255 5373 5254 
3 5373 5258 5254 
3 5256 5373 5255 
3 5374 5373 5256 
3 5375 5256 5372 
3 5374 5256 5375 
3 5257 5376 5365 
3 5257 5258 5376 
3 5377 5258 5373 
3 5377 5376 5258 
3 5264 5378 5259 
3 5259 5378 5379 
3 5259 5379 5260 
3 5380 5261 5260 
3 5380 5260 5379 
3 5380 5381 5261 
3 5382 5261 5381 
3 5370 5261 5382 
3 5384 5262 5383 
3 5263 5383 5262 
3 5384 5264 5262 
3 5263 5265 5385 
3 5383 5263 5385 
3 5264 5384 5386 
3 5378 5264 5386 
3 5265 5266 5385 
3 5387 5385 5266 
3 5266 5388 5387 
3 5268 5388 5266 
3 5270 5389 5267 
3 5267 5389 5268 
3 5268 5390 5388 
3 5390 5268 5391 
3 5391 5268 5389 
3 5271 5392 5269 
3 5269 5392 5270 
3 5392 5393 5270 
3 5389 5270 5393 
3 5352 5392 5271 
3 5277 5274 5273 
3 5277 5394 5274 
3 5274 5394 5395 
3 5395 5275 5274 
3 5395 5396 5275 
3 5397 5275 5396 
3 5398 5275 5397 
3 5398 5276 5275 
3 5276 5398 5293 
3 5277 5362 5394 
3 5306 5278 5399 
3 5279 5399 5278 
3 5283 5399 5279 
3 5282 5279 5280 
3 5283 5279 5282 
3 5401 5400 5283 
3 5402 5401 5283 
3 5402 5283 5284 
3 5283 5400 5399 
3 5402 5284 5403 
3 5285 5403 5284 
3 5285 5404 5403 
3 5405 5404 5285 
3 5405 5285 5286 
3 5286 5406 5405 
3 5407 5286 5291 
3 5286 5407 5406 
3 5287 5301 5408 
3 5288 5287 5408 
3 5288 5408 5409 
3 5409 5410 5288 
3 5288 5410 5411 
3 5288 5411 5289 
3 5289 5411 5290 
3 5290 5411 5412 
3 5290 5412 5413 
3 5290 5413 5292 
3 5414 5291 5292 
3 5414 5407 5291 
3 5414 5292 5413 
3 5293 5398 5294 
3 5415 5294 5398 
3 5295 5294 5415 
3 5295 5415 5416 
3 5295 5416 5417 
3 5297 5296 5295 
3 5297 5295 5417 
3 5298 5297 5418 
3 5418 5297 5417 
3 5420 5298 5419 
3 5298 5418 5419 
3 5420 5299 5298 
3 5300 5299 5421 
3 5420 5421 5299 
3 5300 5422 5301 
3 5422 5300 5421 
3 5408 5301 5422 
3 5303 5309 5302 
3 5303 5423 5309 
3 5304 5305 5303 
3 5424 5423 5303 
3 5306 5303 5305 
3 5306 5424 5303 
3 5306 5425 5424 
3 5306 5426 5425 
3 5399 5400 5306 
3 5401 5426 5306 
3 5401 5306 5400 
3 5307 5313 5427 
3 5307 5427 5328 
3 5309 5428 5308 
3 5308 5428 5429 
3 5430 5316 5308 
3 5430 5308 5429 
3 5309 5431 5428 
3 5309 5423 5431 
3 5432 5310 5317 
3 5432 5433 5310 
3 5310 5433 5434 
3 5311 5310 5434 
3 5435 5311 5434 
3 5435 5436 5311 
3 5436 5312 5311 
3 5436 5314 5312 
3 5437 5313 5314 
3 5427 5313 5437 
3 5436 5438 5314 
3 5437 5314 5438 
3 5317 5315 5439 
3 5439 5315 5440 
3 5315 5316 5441 
3 5315 5441 5440 
3 5442 5441 5316 
3 5430 5442 5316 
3 5432 5317 5439 
3 5443 5318 5329 
3 5443 5320 5318 
3 5444 5319 5320 
3 5321 5319 5445 
3 5445 5319 5444 
3 5320 5443 5446 
3 5444 5320 5446 
3 5448 5447 5321 
3 5447 5322 5321 
3 5448 5321 5445 
3 5449 5322 5447 
3 5449 5323 5322 
3 5449 5450 5323 
3 5451 5323 5450 
3 5451 5324 5323 
3 5451 5452 5324 
3 5324 5452 5325 
3 5326 5325 5452 
3 5453 5326 5452 
3 5453 5454 5326 
3 5326 5454 5455 
3 5326 5455 5456 
3 5326 5456 5327 
3 5339 5327 5456 
3 5328 5427 5457 
3 5329 5328 5457 
3 5329 5457 5458 
3 5443 5329 5458 
3 5338 5332 5330 
3 5333 5331 5459 
3 5331 5332 5459 
3 5332 5338 5460 
3 5459 5332 5460 
3 5459 5335 5333 
3 5461 5351 5334 
3 5335 5461 5334 
3 5459 5461 5335 
3 5336 5340 5462 
3 5336 5462 5463 
3 5336 5463 5337 
3 5338 5337 5464 
3 5337 5465 5464 
3 5463 5465 5337 
3 5460 5338 5466 
3 5338 5464 5466 
3 5339 5456 5467 
3 5339 5467 5468 
3 5339 5468 5340 
3 5468 5469 5340 
3 5340 5469 5462 
3 5361 5341 5470 
3 5470 5341 5342 
3 5471 5470 5342 
3 5342 5343 5471 
3 5343 5472 5471 
3 5343 5473 5472 
3 5344 5345 5343 
3 5473 5343 5345 
3 5473 5345 5346 
3 5474 5473 5346 
3 5474 5346 5475 
3 5347 5475 5346 
3 5347 5348 5476 
3 5347 5476 5475 
3 5349 5476 5348 
3 5349 5477 5476 
3 5349 5350 5477 
3 5350 5478 5477 
3 5479 5350 5351 
3 5479 5478 5350 
3 5480 5479 5351 
3 5461 5480 5351 
3 5352 5481 5392 
3 5482 5481 5352 
3 5353 5482 5352 
3 5353 5484 5483 
3 5353 5355 5484 
3 5353 5483 5482 
3 5353 5354 5355 
3 5355 5356 5485 
3 5355 5485 5484 
3 5356 5357 5486 
3 5485 5356 5486 
3 5486 5357 5358 
3 5359 5486 5358 
3 5359 5487 5486 
3 5488 5487 5359 
3 5488 5359 5360 
3 5488 5360 5489 
3 5361 5489 5360 
3 5361 5470 5489 
3 5490 5362 5363 
3 5490 5394 5362 
3 5491 5363 5369 
3 5491 5492 5363 
3 5363 5395 5490 
3 5363 5492 5395 
3 5365 5493 5364 
3 5364 5493 5494 
3 5364 5494 5366 
3 5365 5376 5495 
3 5365 5495 5496 
3 5365 5496 5493 
3 5366 5494 5367 
3 5497 5367 5494 
3 5498 5367 5497 
3 5498 5499 5367 
3 5367 5499 5368 
3 5500 5368 5499 
3 5369 5368 5500 
3 5491 5369 5500 
3 5501 5370 5382 
3 5501 5371 5370 
3 5501 5502 5371 
3 5503 5372 5371 
3 5503 5371 5502 
3 5372 5503 5375 
3 5374 5504 5373 
3 5377 5373 5504 
3 5374 5505 5504 
3 5374 5375 5506 
3 5506 5505 5374 
3 5507 5375 5503 
3 5507 5506 5375 
3 5377 5495 5376 
3 5508 5377 5504 
3 5509 5495 5377 
3 5508 5509 5377 
3 5378 5510 5379 
3 5511 5510 5378 
3 5378 5386 5512 
3 5378 5512 5511 
3 5510 5380 5379 
3 5510 5513 5380 
3 5514 5381 5380 
3 5514 5380 5513 
3 5514 5382 5381 
3 5514 5501 5382 
3 5383 5515 5384 
3 5383 5516 5515 
3 5383 5385 5516 
3 5384 5515 5517 
3 5384 5517 5386 
3 5385 5518 5516 
3 5385 5387 5518 
3 5512 5386 5517 
3 5519 5387 5388 
3 5518 5387 5519 
3 5520 5519 5388 
3 5390 5521 5388 
3 5520 5388 5521 
3 5389 5393 5522 
3 5389 5522 5391 
3 5390 5391 5523 
3 5524 5521 5390 
3 5523 5524 5390 
3 5523 5391 5522 
3 5392 5481 5525 
3 5393 5392 5525 
3 5393 5526 5522 
3 5525 5527 5393 
3 5393 5527 5526 
3 5490 5395 5394 
3 5395 5492 5528 
3 5395 5528 5396 
3 5396 5528 5529 
3 5396 5529 5530 
3 5397 5396 5530 
3 5531 5397 5530 
3 5532 5397 5531 
3 5415 5398 5397 
3 5532 5415 5397 
3 5401 5425 5426 
3 5533 5425 5401 
3 5533 5401 5402 
3 5534 5533 5402 
3 5534 5402 5403 
3 5404 5534 5403 
3 5404 5535 5534 
3 5404 5405 5535 
3 5406 5535 5405 
3 5536 5535 5406 
3 5536 5406 5537 
3 5406 5538 5537 
3 5406 5407 5539 
3 5406 5539 5540 
3 5406 5540 5538 
3 5407 5541 5539 
3 5407 5414 5541 
3 5542 5408 5422 
3 5542 5409 5408 
3 5542 5543 5409 
3 5543 5544 5409 
3 5409 5544 5410 
3 5544 5545 5410 
3 5410 5412 5411 
3 5412 5410 5545 
3 5412 5545 5546 
3 5412 5546 5413 
3 5547 5413 5546 
3 5547 5414 5413 
3 5547 5548 5414 
3 5414 5548 5541 
3 5549 5415 5532 
3 5549 5416 5415 
3 5549 5550 5416 
3 5550 5417 5416 
3 5417 5552 5551 
3 5418 5417 5551 
3 5553 5552 5417 
3 5553 5417 5550 
3 5418 5551 5419 
3 5555 5554 5419 
3 5555 5419 5551 
3 5420 5419 5554 
3 5420 5554 5556 
3 5420 5557 5421 
3 5556 5557 5420 
3 5422 5421 5542 
3 5558 5542 5421 
3 5557 5558 5421 
3 5424 5431 5423 
3 5425 5431 5424 
3 5425 5559 5431 
3 5425 5560 5559 
3 5425 5533 5561 
3 5425 5561 5560 
3 5427 5437 5562 
3 5427 5562 5457 
3 5559 5429 5428 
3 5428 5431 5559 
3 5563 5430 5429 
3 5559 5563 5429 
3 5430 5564 5442 
3 5430 5565 5564 
3 5563 5565 5430 
3 5432 5439 5566 
3 5432 5566 5433 
3 5568 5567 5433 
3 5566 5568 5433 
3 5569 5433 5567 
3 5569 5435 5433 
3 5435 5434 5433 
3 5570 5436 5435 
3 5571 5570 5435 
3 5569 5571 5435 
3 5436 5570 5438 
3 5562 5437 5572 
3 5572 5437 5573 
3 5437 5438 5573 
3 5570 5573 5438 
3 5574 5439 5440 
3 5574 5566 5439 
3 5574 5440 5575 
3 5576 5440 5441 
3 5575 5440 5576 
3 5576 5441 5442 
3 5576 5442 5564 
3 5577 5443 5458 
3 5577 5446 5443 
3 5579 5444 5578 
3 5444 5580 5578 
3 5444 5446 5580 
3 5579 5445 5444 
3 5579 5448 5445 
3 5577 5580 5446 
3 5582 5581 5447 
3 5448 5582 5447 
3 5449 5447 5581 
3 5448 5584 5583 
3 5448 5583 5582 
3 5579 5584 5448 
3 5449 5581 5450 
3 5450 5581 5585 
3 5450 5585 5586 
3 5451 5450 5586 
3 5451 5586 5587 
3 5451 5587 5452 
3 5453 5452 5587 
3 5453 5588 5454 
3 5453 5590 5589 
3 5587 5590 5453 
3 5589 5591 5453 
3 5453 5591 5588 
3 5588 5592 5454 
3 5592 5467 5454 
3 5454 5467 5455 
3 5456 5455 5467 
3 5593 5457 5562 
3 5593 5458 5457 
3 5593 5594 5458 
3 5458 5594 5577 
3 5459 5595 5461 
3 5459 5596 5595 
3 5460 5596 5459 
3 5460 5597 5596 
3 5460 5466 5597 
3 5595 5480 5461 
3 5599 5462 5598 
3 5462 5469 5598 
3 5463 5462 5599 
3 5463 5600 5465 
3 5463 5599 5600 
3 5465 5601 5464 
3 5466 5464 5601 
3 5600 5601 5465 
3 5466 5601 5602 
3 5466 5602 5597 
3 5603 5467 5592 
3 5603 5604 5467 
3 5468 5467 5604 
3 5468 5604 5605 
3 5468 5605 5606 
3 5606 5607 5468 
3 5468 5607 5608 
3 5468 5608 5469 
3 5608 5598 5469 
3 5609 5489 5470 
3 5609 5470 5610 
3 5471 5610 5470 
3 5471 5611 5610 
3 5471 5472 5611 
3 5612 5611 5472 
3 5613 5612 5472 
3 5613 5472 5473 
3 5613 5473 5614 
3 5614 5473 5474 
3 5474 5615 5614 
3 5474 5616 5615 
3 5474 5475 5616 
3 5617 5616 5475 
3 5618 5475 5476 
3 5617 5475 5618 
3 5476 5477 5618 
3 5618 5477 5478 
3 5618 5478 5619 
3 5620 5619 5478 
3 5620 5478 5621 
3 5621 5478 5479 
3 5622 5621 5479 
3 5622 5479 5623 
3 5623 5479 5624 
3 5480 5624 5479 
3 5625 5624 5480 
3 5625 5480 5595 
3 5527 5525 5481 
3 5626 5481 5482 
3 5626 5527 5481 
3 5626 5482 5483 
3 5483 5484 5627 
3 5483 5628 5626 
3 5629 5628 5483 
3 5629 5483 5627 
3 5630 5627 5484 
3 5630 5484 5631 
3 5631 5484 5485 
3 5631 5485 5487 
3 5485 5486 5487 
3 5631 5487 5632 
3 5487 5488 5632 
3 5633 5632 5488 
3 5488 5489 5609 
3 5488 5609 5633 
3 5491 5500 5634 
3 5491 5634 5492 
3 5529 5492 5634 
3 5529 5528 5492 
3 5635 5493 5496 
3 5635 5494 5493 
3 5635 5497 5494 
3 5509 5496 5495 
3 5636 5496 5509 
3 5635 5496 5636 
3 5635 5637 5497 
3 5497 5637 5498 
3 5637 5638 5498 
3 5499 5498 5638 
3 5499 5638 5639 
3 5500 5499 5639 
3 5639 5640 5500 
3 5634 5500 5640 
3 5514 5641 5501 
3 5641 5642 5501 
3 5501 5642 5502 
3 5503 5502 5507 
3 5502 5642 5643 
3 5643 5644 5502 
3 5502 5644 5507 
3 5645 5504 5505 
3 5645 5508 5504 
3 5506 5645 5505 
3 5506 5507 5646 
3 5506 5646 5647 
3 5506 5648 5645 
3 5506 5647 5648 
3 5646 5507 5644 
3 5645 5649 5508 
3 5508 5649 5509 
3 5650 5509 5649 
3 5650 5636 5509 
3 5511 5651 5510 
3 5513 5510 5651 
3 5511 5512 5652 
3 5511 5652 5653 
3 5651 5511 5653 
3 5517 5654 5512 
3 5512 5654 5652 
3 5514 5513 5655 
3 5513 5651 5656 
3 5513 5657 5655 
3 5513 5656 5657 
3 5514 5655 5641 
3 5515 5659 5658 
3 5515 5516 5659 
3 5515 5658 5660 
3 5515 5654 5517 
3 5515 5660 5654 
3 5661 5659 5516 
3 5661 5516 5518 
3 5661 5518 5662 
3 5662 5518 5663 
3 5519 5663 5518 
3 5519 5664 5663 
3 5520 5665 5519 
3 5519 5666 5664 
3 5519 5665 5666 
3 5524 5520 5521 
3 5665 5520 5524 
3 5523 5522 5667 
3 5522 5526 5667 
3 5668 5523 5667 
3 5668 5524 5523 
3 5665 5524 5669 
3 5669 5524 5670 
3 5524 5668 5670 
3 5527 5671 5526 
3 5673 5526 5672 
3 5672 5526 5671 
3 5526 5668 5667 
3 5673 5668 5526 
3 5674 5671 5527 
3 5626 5674 5527 
3 5529 5634 5640 
3 5529 5640 5675 
3 5529 5675 5676 
3 5676 5530 5529 
3 5530 5676 5677 
3 5678 5531 5530 
3 5678 5530 5677 
3 5678 5679 5531 
3 5549 5532 5531 
3 5679 5549 5531 
3 5534 5561 5533 
3 5680 5561 5534 
3 5680 5534 5536 
3 5536 5534 5535 
3 5681 5680 5536 
3 5536 5537 5681 
3 5682 5681 5537 
3 5682 5537 5683 
3 5683 5537 5538 
3 5683 5538 5684 
3 5538 5540 5685 
3 5685 5684 5538 
3 5686 5539 5541 
3 5686 5540 5539 
3 5540 5687 5685 
3 5686 5687 5540 
3 5541 5548 5686 
3 5543 5542 5558 
3 5543 5558 5688 
3 5543 5688 5689 
3 5543 5689 5544 
3 5689 5545 5544 
3 5690 5545 5689 
3 5690 5546 5545 
3 5547 5546 5691 
3 5692 5546 5690 
3 5691 5546 5692 
3 5547 5691 5548 
3 5691 5693 5548 
3 5694 5686 5548 
3 5694 5548 5693 
3 5695 5549 5679 
3 5549 5695 5550 
3 5696 5550 5695 
3 5696 5697 5550 
3 5553 5550 5697 
3 5555 5551 5698 
3 5698 5551 5552 
3 5552 5700 5699 
3 5698 5552 5699 
3 5552 5553 5697 
3 5552 5697 5700 
3 5556 5554 5701 
3 5555 5702 5554 
3 5701 5554 5702 
3 5703 5702 5555 
3 5704 5555 5698 
3 5704 5703 5555 
3 5556 5705 5557 
3 5556 5701 5705 
3 5557 5705 5558 
3 5688 5558 5706 
3 5706 5558 5705 
3 5559 5707 5563 
3 5559 5560 5707 
3 5560 5708 5707 
3 5560 5680 5708 
3 5560 5561 5680 
3 5562 5572 5709 
3 5562 5709 5593 
3 5563 5710 5565 
3 5563 5711 5710 
3 5563 5707 5711 
3 5712 5576 5564 
3 5712 5564 5565 
3 5565 5710 5712 
3 5574 5568 5566 
3 5714 5713 5567 
3 5714 5567 5568 
3 5567 5713 5715 
3 5567 5715 5569 
3 5716 5568 5574 
3 5714 5568 5716 
3 5715 5717 5569 
3 5717 5571 5569 
3 5571 5718 5570 
3 5718 5719 5570 
3 5570 5719 5720 
3 5570 5720 5573 
3 5721 5571 5717 
3 5722 5571 5721 
3 5722 5718 5571 
3 5572 5720 5723 
3 5709 5572 5723 
3 5572 5573 5720 
3 5716 5574 5724 
3 5574 5575 5724 
3 5575 5576 5725 
3 5726 5724 5575 
3 5726 5575 5725 
3 5712 5727 5576 
3 5727 5725 5576 
3 5580 5577 5594 
3 5728 5578 5580 
3 5579 5578 5729 
3 5578 5728 5729 
3 5579 5729 5584 
3 5730 5580 5594 
3 5728 5580 5730 
3 5581 5732 5731 
3 5582 5732 5581 
3 5585 5581 5731 
3 5582 5583 5732 
3 5733 5732 5583 
3 5584 5733 5583 
3 5584 5734 5733 
3 5584 5735 5734 
3 5584 5729 5735 
3 5586 5585 5736 
3 5736 5585 5737 
3 5731 5737 5585 
3 5586 5590 5587 
3 5586 5736 5590 
3 5588 5591 5738 
3 5588 5738 5739 
3 5588 5739 5592 
3 5741 5740 5589 
3 5741 5589 5590 
3 5589 5740 5591 
3 5741 5590 5736 
3 5740 5742 5591 
3 5743 5591 5742 
3 5743 5738 5591 
3 5603 5592 5744 
3 5739 5744 5592 
3 5709 5594 5593 
3 5709 5730 5594 
3 5595 5596 5597 
3 5625 5595 5597 
3 5625 5597 5745 
3 5745 5597 5602 
3 5608 5746 5598 
3 5599 5598 5746 
3 5599 5747 5600 
3 5599 5746 5747 
3 5600 5747 5601 
3 5601 5748 5602 
3 5747 5748 5601 
3 5749 5745 5602 
3 5750 5749 5602 
3 5750 5602 5748 
3 5751 5603 5744 
3 5603 5751 5752 
3 5603 5752 5604 
3 5752 5605 5604 
3 5753 5605 5752 
3 5606 5605 5754 
3 5753 5754 5605 
3 5755 5606 5754 
3 5755 5607 5606 
3 5756 5608 5607 
3 5755 5756 5607 
3 5608 5756 5746 
3 5610 5633 5609 
3 5610 5758 5757 
3 5610 5757 5633 
3 5610 5611 5758 
3 5758 5611 5612 
3 5612 5760 5759 
3 5761 5760 5612 
3 5758 5612 5759 
3 5761 5612 5613 
3 5762 5761 5613 
3 5613 5615 5762 
3 5613 5614 5615 
3 5762 5615 5763 
3 5615 5764 5763 
3 5765 5615 5616 
3 5764 5615 5765 
3 5765 5616 5617 
3 5765 5617 5766 
3 5767 5766 5617 
3 5767 5617 5618 
3 5767 5618 5619 
3 5767 5619 5768 
3 5620 5768 5619 
3 5621 5622 5620 
3 5620 5769 5768 
3 5769 5620 5622 
3 5622 5623 5770 
3 5622 5771 5769 
3 5622 5772 5771 
3 5622 5770 5772 
3 5773 5770 5623 
3 5773 5623 5624 
3 5625 5773 5624 
3 5625 5749 5773 
3 5625 5745 5749 
3 5626 5774 5674 
3 5628 5774 5626 
3 5775 5629 5627 
3 5630 5775 5627 
3 5629 5774 5628 
3 5777 5776 5629 
3 5629 5776 5778 
3 5777 5629 5775 
3 5629 5778 5774 
3 5631 5632 5630 
3 5779 5775 5630 
3 5779 5630 5632 
3 5779 5632 5633 
3 5779 5633 5757 
3 5635 5636 5780 
3 5635 5780 5637 
3 5650 5781 5636 
3 5780 5636 5781 
3 5637 5780 5782 
3 5637 5783 5638 
3 5637 5782 5784 
3 5637 5784 5783 
3 5639 5638 5783 
3 5785 5639 5783 
3 5639 5675 5640 
3 5785 5675 5639 
3 5655 5657 5641 
3 5641 5657 5786 
3 5787 5641 5786 
3 5642 5641 5787 
3 5643 5642 5788 
3 5789 5642 5787 
3 5789 5788 5642 
3 5643 5788 5644 
3 5646 5644 5790 
3 5788 5791 5644 
3 5790 5644 5791 
3 5648 5649 5645 
3 5647 5646 5790 
3 5647 5792 5648 
3 5647 5790 5793 
3 5647 5793 5794 
3 5647 5794 5792 
3 5648 5792 5795 
3 5648 5795 5649 
3 5797 5649 5796 
3 5797 5650 5649 
3 5795 5796 5649 
3 5797 5781 5650 
3 5653 5656 5651 
3 5798 5652 5654 
3 5798 5799 5652 
3 5653 5652 5799 
3 5800 5653 5799 
3 5801 5653 5800 
3 5801 5656 5653 
3 5654 5660 5798 
3 5786 5657 5656 
3 5802 5656 5801 
3 5802 5786 5656 
3 5804 5803 5658 
3 5658 5659 5804 
3 5658 5803 5805 
3 5658 5805 5806 
3 5660 5658 5806 
3 5804 5659 5807 
3 5661 5807 5659 
3 5660 5806 5798 
3 5661 5808 5807 
3 5661 5662 5808 
3 5808 5662 5809 
3 5810 5662 5663 
3 5810 5809 5662 
3 5810 5663 5664 
3 5664 5811 5810 
3 5664 5666 5812 
3 5664 5812 5811 
3 5665 5813 5666 
3 5665 5669 5813 
3 5812 5666 5813 
3 5814 5670 5668 
3 5814 5668 5673 
3 5669 5670 5813 
3 5813 5670 5815 
3 5814 5816 5670 
3 5815 5670 5816 
3 5674 5672 5671 
3 5673 5672 5817 
3 5674 5818 5672 
3 5672 5818 5817 
3 5673 5817 5814 
3 5774 5818 5674 
3 5785 5819 5675 
3 5819 5820 5675 
3 5676 5675 5820 
3 5677 5676 5820 
3 5821 5677 5820 
3 5677 5821 5678 
3 5678 5821 5822 
3 5678 5822 5823 
3 5678 5823 5679 
3 5824 5679 5823 
3 5695 5679 5824 
3 5708 5680 5681 
3 5708 5681 5825 
3 5681 5826 5825 
3 5681 5682 5826 
3 5682 5827 5826 
3 5682 5683 5684 
3 5682 5684 5827 
3 5684 5828 5827 
3 5684 5829 5828 
3 5830 5684 5685 
3 5829 5684 5830 
3 5685 5687 5831 
3 5830 5685 5831 
3 5694 5687 5686 
3 5694 5831 5687 
3 5688 5706 5832 
3 5688 5832 5833 
3 5689 5688 5834 
3 5688 5833 5834 
3 5689 5834 5690 
3 5834 5835 5690 
3 5692 5690 5835 
3 5691 5836 5693 
3 5691 5692 5836 
3 5837 5692 5835 
3 5837 5836 5692 
3 5693 5838 5694 
3 5693 5836 5838 
3 5694 5839 5831 
3 5694 5838 5839 
3 5695 5824 5840 
3 5695 5840 5841 
3 5695 5841 5696 
3 5841 5842 5696 
3 5696 5842 5697 
3 5842 5843 5697 
3 5844 5700 5697 
3 5844 5697 5843 
3 5698 5699 5845 
3 5698 5845 5846 
3 5704 5698 5846 
3 5844 5699 5700 
3 5844 5847 5699 
3 5847 5845 5699 
3 5703 5701 5702 
3 5848 5701 5703 
3 5848 5706 5701 
3 5706 5705 5701 
3 5849 5848 5703 
3 5704 5849 5703 
3 5704 5846 5850 
3 5704 5850 5849 
3 5832 5706 5848 
3 5851 5711 5707 
3 5851 5707 5708 
3 5708 5852 5851 
3 5708 5825 5852 
3 5853 5709 5723 
3 5853 5854 5709 
3 5709 5854 5730 
3 5855 5712 5710 
3 5855 5710 5856 
3 5711 5856 5710 
3 5711 5852 5856 
3 5711 5851 5852 
3 5712 5857 5727 
3 5858 5712 5855 
3 5712 5859 5857 
3 5712 5858 5859 
3 5714 5860 5713 
3 5715 5713 5860 
3 5714 5862 5861 
3 5716 5862 5714 
3 5714 5861 5860 
3 5715 5860 5863 
3 5715 5863 5864 
3 5715 5864 5717 
3 5716 5724 5862 
3 5864 5865 5717 
3 5721 5717 5865 
3 5722 5866 5718 
3 5866 5719 5718 
3 5866 5867 5719 
3 5867 5720 5719 
3 5867 5868 5720 
3 5868 5723 5720 
3 5865 5869 5721 
3 5869 5722 5721 
3 5722 5869 5870 
3 5722 5870 5871 
3 5722 5871 5866 
3 5853 5723 5868 
3 5872 5862 5724 
3 5726 5873 5724 
3 5873 5872 5724 
3 5726 5725 5727 
3 5874 5873 5726 
3 5727 5857 5726 
3 5726 5857 5875 
3 5875 5874 5726 
3 5876 5728 5730 
3 5876 5729 5728 
3 5876 5735 5729 
3 5876 5730 5877 
3 5730 5854 5877 
3 5737 5731 5878 
3 5878 5731 5732 
3 5879 5878 5732 
3 5879 5732 5880 
3 5733 5880 5732 
3 5733 5881 5880 
3 5882 5881 5733 
3 5882 5733 5734 
3 5882 5734 5735 
3 5884 5883 5735 
3 5882 5735 5883 
3 5876 5884 5735 
3 5736 5737 5885 
3 5736 5885 5741 
3 5737 5878 5886 
3 5737 5886 5885 
3 5887 5738 5743 
3 5744 5739 5738 
3 5744 5738 5887 
3 5889 5888 5740 
3 5741 5889 5740 
3 5890 5740 5888 
3 5740 5890 5742 
3 5891 5741 5885 
3 5741 5891 5889 
3 5890 5892 5742 
3 5893 5742 5892 
3 5894 5742 5893 
3 5894 5743 5742 
3 5894 5895 5743 
3 5887 5743 5895 
3 5897 5744 5896 
3 5744 5898 5896 
3 5744 5887 5898 
3 5897 5751 5744 
3 5746 5899 5747 
3 5746 5756 5899 
3 5747 5899 5748 
3 5900 5748 5899 
3 5750 5748 5901 
3 5748 5900 5901 
3 5750 5773 5749 
3 5903 5750 5902 
3 5902 5750 5901 
3 5750 5903 5773 
3 5897 5904 5751 
3 5752 5751 5904 
3 5753 5752 5904 
3 5753 5904 5905 
3 5753 5906 5754 
3 5753 5907 5906 
3 5753 5905 5907 
3 5755 5754 5906 
3 5755 5906 5756 
3 5756 5900 5899 
3 5908 5900 5756 
3 5908 5756 5906 
3 5779 5757 5909 
3 5757 5910 5909 
3 5758 5910 5757 
3 5758 5759 5910 
3 5911 5910 5759 
3 5911 5759 5760 
3 5761 5912 5760 
3 5911 5760 5913 
3 5760 5914 5913 
3 5760 5912 5914 
3 5761 5915 5912 
3 5762 5915 5761 
3 5762 5916 5915 
3 5762 5763 5916 
3 5918 5763 5917 
3 5918 5919 5763 
3 5763 5919 5916 
3 5920 5917 5763 
3 5920 5763 5764 
3 5764 5921 5920 
3 5764 5922 5921 
3 5764 5765 5922 
3 5765 5766 5922 
3 5767 5922 5766 
3 5767 5923 5922 
3 5767 5768 5923 
3 5924 5923 5768 
3 5769 5924 5768 
3 5769 5925 5924 
3 5769 5771 5925 
3 5773 5926 5770 
3 5772 5770 5926 
3 5927 5925 5771 
3 5927 5771 5928 
3 5928 5771 5929 
3 5772 5930 5771 
3 5929 5771 5930 
3 5772 5926 5930 
3 5926 5773 5903 
3 5774 5931 5818 
3 5774 5778 5931 
3 5779 5777 5775 
3 5932 5778 5776 
3 5932 5776 5933 
3 5777 5933 5776 
3 5909 5777 5779 
3 5909 5933 5777 
3 5931 5778 5932 
3 5780 5781 5934 
3 5934 5782 5780 
3 5781 5797 5935 
3 5781 5936 5934 
3 5781 5935 5936 
3 5934 5936 5782 
3 5782 5937 5784 
3 5938 5782 5936 
3 5938 5937 5782 
3 5785 5783 5784 
3 5937 5939 5784 
3 5785 5784 5939 
3 5940 5785 5939 
3 5785 5940 5819 
3 5802 5941 5786 
3 5787 5786 5941 
3 5789 5787 5942 
3 5941 5943 5787 
3 5942 5787 5943 
3 5789 5944 5788 
3 5791 5788 5944 
3 5789 5942 5944 
3 5790 5791 5945 
3 5790 5945 5793 
3 5945 5791 5944 
3 5795 5792 5794 
3 5946 5793 5945 
3 5793 5947 5794 
3 5793 5946 5947 
3 5794 5949 5948 
3 5795 5794 5948 
3 5794 5947 5949 
3 5797 5796 5795 
3 5795 5948 5797 
3 5935 5797 5948 
3 5950 5798 5806 
3 5950 5951 5798 
3 5798 5951 5952 
3 5798 5952 5799 
3 5952 5953 5799 
3 5800 5799 5953 
3 5801 5800 5954 
3 5800 5953 5955 
3 5800 5955 5954 
3 5801 5954 5802 
3 5802 5954 5956 
3 5802 5956 5957 
3 5802 5957 5941 
3 5804 5807 5803 
3 5958 5803 5807 
3 5958 5805 5803 
3 5958 5959 5805 
3 5806 5805 5959 
3 5950 5806 5959 
3 5958 5807 5960 
3 5807 5808 5960 
3 5961 5960 5808 
3 5961 5808 5809 
3 5962 5961 5809 
3 5962 5809 5963 
3 5809 5964 5963 
3 5810 5964 5809 
3 5810 5965 5964 
3 5811 5965 5810 
3 5966 5965 5811 
3 5812 5966 5811 
3 5812 5813 5966 
3 5813 5815 5966 
3 5816 5814 5967 
3 5814 5817 5967 
3 5966 5815 5968 
3 5968 5815 5816 
3 5969 5816 5967 
3 5969 5968 5816 
3 5970 5817 5818 
3 5970 5967 5817 
3 5931 5970 5818 
3 5819 5940 5821 
3 5819 5821 5820 
3 5821 5940 5971 
3 5971 5822 5821 
3 5972 5822 5971 
3 5972 5973 5822 
3 5822 5973 5974 
3 5822 5974 5823 
3 5824 5823 5974 
3 5975 5824 5974 
3 5975 5840 5824 
3 5852 5825 5976 
3 5826 5976 5825 
3 5827 5976 5826 
3 5827 5828 5976 
3 5976 5828 5977 
3 5828 5978 5977 
3 5828 5829 5979 
3 5828 5979 5978 
3 5980 5979 5829 
3 5980 5829 5830 
3 5830 5831 5839 
3 5981 5830 5839 
3 5980 5830 5981 
3 5832 5848 5982 
3 5832 5982 5833 
3 5983 5833 5982 
3 5833 5983 5984 
3 5834 5833 5984 
3 5837 5835 5834 
3 5837 5834 5984 
3 5837 5985 5836 
3 5985 5838 5836 
3 5987 5986 5837 
3 5988 5987 5837 
3 5986 5989 5837 
3 5985 5837 5989 
3 5988 5837 5984 
3 5838 5990 5839 
3 5989 5838 5985 
3 5989 5990 5838 
3 5981 5839 5990 
3 5975 5991 5840 
3 5841 5840 5991 
3 5841 5991 5842 
3 5842 5991 5992 
3 5842 5992 5993 
3 5842 5993 5843 
3 5993 5994 5843 
3 5844 5843 5994 
3 5844 5994 5995 
3 5995 5847 5844 
3 5845 5996 5850 
3 5847 5996 5845 
3 5845 5850 5846 
3 5998 5847 5997 
3 5996 5847 5998 
3 5999 5997 5847 
3 5999 5847 5995 
3 5849 6000 5848 
3 5848 6000 6001 
3 5848 6001 5982 
3 5849 5850 6002 
3 5849 6002 6003 
3 5849 6003 6000 
3 6002 5850 5998 
3 5996 5998 5850 
3 6004 5856 5852 
3 5852 5976 6004 
3 5854 5853 6005 
3 5853 5868 6006 
3 6005 5853 6006 
3 5854 6005 5877 
3 5855 5856 5858 
3 6004 5858 5856 
3 5875 5857 6007 
3 6007 5857 5859 
3 5859 5858 6008 
3 6009 6008 5858 
3 6004 6010 5858 
3 5858 6010 6009 
3 5859 6008 6011 
3 6007 5859 6012 
3 6012 5859 6011 
3 6013 5860 5861 
3 6014 5860 6013 
3 6014 5863 5860 
3 6016 6015 5861 
3 6013 5861 6015 
3 5862 6016 5861 
3 6017 6016 5862 
3 6017 5862 5872 
3 5864 5863 6018 
3 6014 6018 5863 
3 5864 6019 5865 
3 5864 6018 6019 
3 5865 6020 5869 
3 6019 6020 5865 
3 5871 6021 5866 
3 6022 5866 6021 
3 6022 5867 5866 
3 6006 5867 6022 
3 6006 5868 5867 
3 5869 6020 5870 
3 6023 5870 6020 
3 6023 6024 5870 
3 6025 5871 5870 
3 6025 5870 6024 
3 6025 6021 5871 
3 6026 6017 5872 
3 5873 6027 5872 
3 6026 5872 6028 
3 6028 5872 6027 
3 5874 6027 5873 
3 5874 6028 6027 
3 5875 6029 5874 
3 5874 6029 6030 
3 5874 6030 6028 
3 5875 6031 6029 
3 6032 6031 5875 
3 6032 5875 6007 
3 5876 5877 6033 
3 5876 6033 5884 
3 5877 6005 6033 
3 6034 5878 5879 
3 6034 5886 5878 
3 5879 6035 6034 
3 5879 5880 6035 
3 6036 5880 5881 
3 6035 5880 6036 
3 6037 6036 5881 
3 5882 6037 5881 
3 5882 5883 6038 
3 5882 6038 6037 
3 6039 5883 5884 
3 6039 6038 5883 
3 6039 5884 6033 
3 6040 5885 5886 
3 6041 5885 6040 
3 5891 5885 6041 
3 6042 5886 6034 
3 6040 5886 6042 
3 5898 5887 5895 
3 6044 6043 5888 
3 6044 5888 6045 
3 5888 5889 6045 
3 6043 6046 5888 
3 5890 5888 6046 
3 5891 6045 5889 
3 6047 5890 6046 
3 6047 5892 5890 
3 5891 6041 6045 
3 6047 6048 5892 
3 5893 5892 6048 
3 5893 6048 6049 
3 5893 6049 6050 
3 5894 5893 6050 
3 5894 6050 6051 
3 6052 5895 5894 
3 6052 5894 6051 
3 5898 5895 6052 
3 5897 5896 5898 
3 5897 5898 6053 
3 5897 6053 5904 
3 5898 6055 6054 
3 5898 6052 6055 
3 5898 6054 6053 
3 5902 5901 5900 
3 5902 5900 5908 
3 5903 5902 6056 
3 5902 6057 6056 
3 5902 6058 6057 
3 5902 5908 6058 
3 6059 5903 5930 
3 5903 6056 5930 
3 6059 5926 5903 
3 5904 6053 5905 
3 5905 6060 5907 
3 6053 6060 5905 
3 5908 5906 6061 
3 6061 5906 5907 
3 6061 5907 6060 
3 6061 6058 5908 
3 5909 5910 5933 
3 5933 5910 5911 
3 5933 5911 5932 
3 5911 6062 5932 
3 5913 6062 5911 
3 5912 6063 5914 
3 5915 6063 5912 
3 6062 5913 6064 
3 6065 6064 5913 
3 6065 5913 5914 
3 6065 5914 6066 
3 6066 5914 6067 
3 5914 6068 6067 
3 5914 6063 6068 
3 5919 5915 5916 
3 5919 6063 5915 
3 5918 5917 6069 
3 6069 5917 6070 
3 5920 6070 5917 
3 5918 6071 6063 
3 6071 5918 6069 
3 5919 5918 6063 
3 5920 6072 6070 
3 5921 6072 5920 
3 5921 6073 6072 
3 6074 6073 5921 
3 6074 5921 5922 
3 6074 5922 5923 
3 5924 6074 5923 
3 5924 6075 6074 
3 5924 6076 6075 
3 6076 5924 5925 
3 6076 5925 5927 
3 5930 5926 6059 
3 6076 5927 6077 
3 5927 6078 6077 
3 5927 5928 6078 
3 6079 6078 5928 
3 6079 5928 5929 
3 6080 6079 5929 
3 5929 6056 6080 
3 5929 5930 6056 
3 5931 6081 5970 
3 6081 5931 5932 
3 6081 5932 6062 
3 5949 5935 5948 
3 6082 5935 5949 
3 6082 6083 5935 
3 5938 5936 5935 
3 5938 5935 6083 
3 5938 6084 5937 
3 5939 5937 6084 
3 5938 6083 6085 
3 5938 6085 6084 
3 5939 6084 6086 
3 5940 5939 6086 
3 5940 6086 6087 
3 5940 6087 5971 
3 5941 5957 5943 
3 5942 6088 5944 
3 5942 5943 6089 
3 5942 6089 6090 
3 5942 6090 6088 
3 5957 6091 5943 
3 6091 6089 5943 
3 5945 5944 6092 
3 6093 5944 6088 
3 6093 6092 5944 
3 6094 5945 6092 
3 5946 5945 6094 
3 6095 5946 6094 
3 5946 6095 5947 
3 5949 5947 6095 
3 5949 6095 6096 
3 6082 5949 6096 
3 5950 5959 6097 
3 5951 5950 6098 
3 6097 6099 5950 
3 6099 6098 5950 
3 5952 5951 6098 
3 5952 6098 5953 
3 6098 6100 5953 
3 5955 5953 6100 
3 5954 5955 5956 
3 5955 6100 6101 
3 6101 6102 5955 
3 5956 5955 6102 
3 5957 5956 6103 
3 5956 6102 6104 
3 5956 6105 6103 
3 5956 6104 6105 
3 5957 6103 6106 
3 5957 6106 6091 
3 5958 6108 6107 
3 5958 6109 6108 
3 5960 6109 5958 
3 5958 6107 5959 
3 6110 5959 6107 
3 6110 6111 5959 
3 6112 5959 6111 
3 6112 6113 5959 
3 6097 5959 6113 
3 5960 5961 6109 
3 6109 5961 6114 
3 6115 6114 5961 
3 6115 5961 5962 
3 6115 5962 5963 
3 6115 5963 6116 
3 6117 6116 5963 
3 5963 5964 6118 
3 6117 5963 6118 
3 6118 5964 6119 
3 6120 5964 5965 
3 6120 6119 5964 
3 6120 5965 6121 
3 5966 6121 5965 
3 5966 6122 6121 
3 5966 5968 6122 
3 5969 5967 6123 
3 5970 6124 5967 
3 6124 6123 5967 
3 6125 6122 5968 
3 6126 6125 5968 
3 5969 6126 5968 
3 6127 6126 5969 
3 6127 5969 6123 
3 6128 5970 6081 
3 6124 5970 6129 
3 6128 6129 5970 
3 5972 5971 6087 
3 6086 6130 5972 
3 5972 6087 6086 
3 5972 6130 6131 
3 5972 6131 5973 
3 6132 5973 6131 
3 5974 5973 6133 
3 6134 6133 5973 
3 6132 6134 5973 
3 5975 5974 6133 
3 5975 6133 6135 
3 6136 5975 6135 
3 5991 5975 6136 
3 5976 5977 6004 
3 6004 5977 6010 
3 5977 6137 6010 
3 6137 5977 5978 
3 6137 5978 6138 
3 6139 6138 5978 
3 6139 5978 5979 
3 5979 6140 6139 
3 5979 5980 6140 
3 5980 6141 6140 
3 5981 6142 5980 
3 5980 6142 6143 
3 5980 6143 6141 
3 5990 6142 5981 
3 6001 6144 5982 
3 6145 5983 5982 
3 6145 5982 6144 
3 6145 5988 5983 
3 5988 5984 5983 
3 5987 6145 5986 
3 5986 6145 6146 
3 6147 5986 6146 
3 6147 6148 5986 
3 5986 6148 6149 
3 5986 6149 5989 
3 5987 5988 6145 
3 5989 6150 5990 
3 5989 6149 6150 
3 5990 6151 6142 
3 5990 6150 6151 
3 5991 6136 5992 
3 5993 5992 6136 
3 5993 6136 6152 
3 5993 6152 6153 
3 5993 6153 5994 
3 6154 5994 6153 
3 5995 5994 6154 
3 5995 6154 6155 
3 5995 6155 6156 
3 6157 5999 5995 
3 6157 5995 6158 
3 6156 6158 5995 
3 5999 6159 5997 
3 5998 5997 6159 
3 5998 6159 6160 
3 5998 6161 6002 
3 5998 6160 6161 
3 6157 6159 5999 
3 6000 6003 6001 
3 6003 6162 6001 
3 6001 6162 6163 
3 6001 6164 6144 
3 6001 6163 6164 
3 6002 6161 6003 
3 6162 6003 6161 
3 6165 6005 6006 
3 6165 6166 6005 
3 6005 6166 6033 
3 6006 6022 6165 
3 6007 6167 6032 
3 6007 6012 6168 
3 6168 6167 6007 
3 6169 6011 6008 
3 6169 6008 6170 
3 6170 6008 6009 
3 6010 6137 6009 
3 6137 6170 6009 
3 6171 6012 6011 
3 6171 6011 6169 
3 6171 6172 6012 
3 6168 6012 6172 
3 6013 6173 6014 
3 6013 6015 6173 
3 6173 6018 6014 
3 6015 6016 6174 
3 6015 6174 6175 
3 6173 6015 6175 
3 6174 6016 6176 
3 6017 6177 6016 
3 6176 6016 6177 
3 6026 6177 6017 
3 6179 6018 6178 
3 6018 6181 6180 
3 6019 6018 6182 
3 6182 6018 6180 
3 6178 6018 6173 
3 6179 6181 6018 
3 6019 6182 6020 
3 6183 6020 6182 
3 6183 6023 6020 
3 6025 6184 6021 
3 6184 6185 6021 
3 6022 6021 6185 
3 6022 6185 6165 
3 6183 6186 6023 
3 6025 6024 6023 
3 6025 6023 6184 
3 6023 6186 6187 
3 6023 6187 6188 
3 6184 6023 6188 
3 6026 6189 6177 
3 6026 6190 6189 
3 6026 6028 6191 
3 6026 6191 6190 
3 6192 6028 6030 
3 6192 6191 6028 
3 6030 6029 6031 
3 6193 6192 6030 
3 6030 6031 6194 
3 6193 6030 6194 
3 6031 6195 6194 
3 6032 6195 6031 
3 6195 6032 6167 
3 6039 6033 6166 
3 6197 6034 6196 
3 6197 6042 6034 
3 6034 6035 6196 
3 6198 6196 6035 
3 6198 6035 6036 
3 6199 6198 6036 
3 6199 6036 6200 
3 6037 6200 6036 
3 6037 6038 6200 
3 6201 6200 6038 
3 6039 6201 6038 
3 6039 6166 6201 
3 6042 6202 6040 
3 6202 6045 6040 
3 6041 6040 6045 
3 6042 6203 6202 
3 6042 6197 6203 
3 6044 6204 6043 
3 6204 6205 6043 
3 6043 6047 6046 
3 6206 6043 6205 
3 6047 6043 6206 
3 6207 6044 6202 
3 6202 6044 6045 
3 6044 6207 6204 
3 6047 6206 6048 
3 6206 6049 6048 
3 6206 6208 6049 
3 6049 6208 6209 
3 6209 6210 6049 
3 6050 6049 6210 
3 6210 6051 6050 
3 6210 6211 6051 
3 6211 6212 6051 
3 6052 6051 6212 
3 6052 6212 6055 
3 6213 6060 6053 
3 6213 6053 6054 
3 6212 6054 6055 
3 6054 6212 6214 
3 6213 6054 6214 
3 6056 6215 6080 
3 6056 6057 6215 
3 6215 6057 6214 
3 6057 6058 6213 
3 6214 6057 6213 
3 6058 6060 6213 
3 6061 6060 6058 
3 6081 6062 6128 
3 6129 6128 6062 
3 6129 6062 6064 
3 6063 6071 6068 
3 6129 6064 6216 
3 6064 6217 6216 
3 6064 6065 6217 
3 6065 6218 6217 
3 6218 6065 6066 
3 6218 6066 6219 
3 6220 6219 6066 
3 6220 6066 6221 
3 6067 6221 6066 
3 6067 6222 6221 
3 6067 6068 6071 
3 6071 6222 6067 
3 6069 6224 6223 
3 6069 6070 6224 
3 6071 6069 6223 
3 6072 6224 6070 
3 6071 6223 6222 
3 6225 6224 6072 
3 6225 6072 6226 
3 6072 6227 6226 
3 6073 6228 6072 
3 6228 6227 6072 
3 6073 6074 6228 
3 6074 6075 6228 
3 6077 6228 6075 
3 6076 6077 6075 
3 6077 6229 6228 
3 6230 6229 6077 
3 6230 6077 6231 
3 6078 6231 6077 
3 6078 6232 6231 
3 6079 6232 6078 
3 6079 6233 6232 
3 6079 6234 6233 
3 6079 6215 6234 
3 6079 6080 6215 
3 6082 6096 6083 
3 6235 6083 6096 
3 6235 6085 6083 
3 6086 6084 6085 
3 6085 6235 6236 
3 6086 6085 6130 
3 6130 6085 6236 
3 6093 6088 6237 
3 6090 6238 6088 
3 6237 6088 6238 
3 6239 6089 6091 
3 6239 6090 6089 
3 6239 6240 6090 
3 6241 6090 6240 
3 6241 6238 6090 
3 6106 6242 6091 
3 6239 6091 6242 
3 6243 6092 6093 
3 6094 6092 6244 
3 6243 6244 6092 
3 6245 6093 6237 
3 6245 6243 6093 
3 6244 6095 6094 
3 6244 6246 6095 
3 6246 6096 6095 
3 6247 6096 6246 
3 6235 6096 6247 
3 6097 6113 6248 
3 6097 6249 6099 
3 6097 6248 6249 
3 6099 6100 6098 
3 6250 6099 6249 
3 6251 6100 6099 
3 6250 6251 6099 
3 6101 6100 6251 
3 6101 6251 6252 
3 6101 6252 6253 
3 6101 6253 6102 
3 6253 6104 6102 
3 6105 6106 6103 
3 6253 6105 6104 
3 6253 6254 6105 
3 6106 6105 6254 
3 6106 6254 6242 
3 6255 6107 6108 
3 6255 6110 6107 
3 6255 6108 6109 
3 6255 6109 6256 
3 6109 6114 6256 
3 6255 6257 6110 
3 6258 6110 6257 
3 6111 6110 6258 
3 6111 6258 6259 
3 6111 6259 6260 
3 6111 6260 6112 
3 6112 6260 6113 
3 6260 6261 6113 
3 6248 6113 6262 
3 6261 6262 6113 
3 6263 6256 6114 
3 6264 6114 6115 
3 6263 6114 6264 
3 6264 6115 6116 
3 6265 6264 6116 
3 6117 6265 6116 
3 6266 6265 6117 
3 6117 6118 6267 
3 6267 6266 6117 
3 6267 6118 6119 
3 6267 6119 6268 
3 6269 6119 6120 
3 6269 6268 6119 
3 6120 6121 6270 
3 6269 6120 6270 
3 6271 6121 6122 
3 6271 6270 6121 
3 6271 6122 6125 
3 6272 6123 6124 
3 6272 6273 6123 
3 6127 6123 6273 
3 6124 6129 6216 
3 6272 6124 6216 
3 6125 6126 6274 
3 6125 6274 6275 
3 6271 6125 6275 
3 6127 6274 6126 
3 6273 6274 6127 
3 6236 6276 6130 
3 6130 6276 6131 
3 6131 6276 6277 
3 6132 6131 6277 
3 6278 6132 6277 
3 6278 6279 6132 
3 6134 6132 6279 
3 6134 6135 6133 
3 6280 6134 6279 
3 6280 6135 6134 
3 6280 6136 6135 
3 6280 6281 6136 
3 6281 6152 6136 
3 6137 6138 6170 
3 6138 6282 6170 
3 6283 6282 6138 
3 6138 6139 6284 
3 6138 6284 6283 
3 6140 6284 6139 
3 6285 6284 6140 
3 6285 6140 6141 
3 6141 6286 6285 
3 6143 6287 6141 
3 6141 6287 6286 
3 6143 6142 6151 
3 6143 6151 6288 
3 6143 6288 6287 
3 6144 6164 6289 
3 6144 6289 6290 
3 6144 6290 6145 
3 6146 6145 6290 
3 6289 6146 6290 
3 6289 6147 6146 
3 6289 6291 6147 
3 6293 6292 6147 
3 6292 6148 6147 
3 6293 6147 6291 
3 6151 6149 6148 
3 6151 6148 6294 
3 6292 6294 6148 
3 6151 6150 6149 
3 6151 6294 6288 
3 6295 6152 6281 
3 6295 6296 6152 
3 6152 6296 6153 
3 6154 6153 6296 
3 6297 6154 6296 
3 6297 6298 6154 
3 6298 6155 6154 
3 6156 6155 6298 
3 6299 6156 6298 
3 6156 6299 6158 
3 6157 6301 6300 
3 6157 6300 6302 
3 6157 6302 6159 
3 6157 6158 6301 
3 6303 6158 6299 
3 6158 6303 6301 
3 6160 6159 6304 
3 6304 6159 6302 
3 6306 6305 6160 
3 6306 6160 6304 
3 6305 6161 6160 
3 6305 6162 6161 
3 6163 6162 6305 
3 6307 6164 6163 
3 6163 6305 6308 
3 6163 6308 6309 
3 6163 6309 6291 
3 6163 6291 6307 
3 6307 6289 6164 
3 6310 6165 6185 
3 6165 6310 6166 
3 6310 6201 6166 
3 6167 6311 6195 
3 6312 6311 6167 
3 6168 6312 6167 
3 6168 6313 6312 
3 6172 6313 6168 
3 6169 6170 6314 
3 6171 6169 6314 
3 6170 6282 6314 
3 6171 6315 6172 
3 6171 6314 6315 
3 6172 6316 6313 
3 6172 6315 6317 
3 6172 6317 6316 
3 6173 6175 6318 
3 6178 6173 6319 
3 6319 6173 6318 
3 6321 6174 6320 
3 6174 6176 6320 
3 6174 6321 6175 
3 6321 6322 6175 
3 6175 6322 6318 
3 6176 6323 6320 
3 6325 6176 6324 
3 6325 6326 6176 
3 6176 6326 6323 
3 6324 6176 6177 
3 6324 6177 6189 
3 6178 6319 6327 
3 6179 6178 6327 
3 6179 6329 6328 
3 6179 6328 6181 
3 6179 6327 6330 
3 6179 6330 6329 
3 6331 6180 6181 
3 6331 6182 6180 
3 6181 6332 6331 
3 6332 6181 6328 
3 6331 6333 6182 
3 6333 6183 6182 
3 6333 6334 6183 
3 6183 6334 6186 
3 6184 6310 6185 
3 6184 6188 6310 
3 6335 6186 6334 
3 6335 6187 6186 
3 6336 6187 6335 
3 6336 6337 6187 
3 6338 6187 6337 
3 6338 6188 6187 
3 6201 6188 6338 
3 6201 6310 6188 
3 6324 6189 6339 
3 6190 6339 6189 
3 6190 6340 6339 
3 6190 6258 6340 
3 6341 6190 6191 
3 6190 6342 6258 
3 6190 6341 6342 
3 6191 6192 6341 
3 6192 6343 6341 
3 6343 6192 6193 
3 6343 6193 6344 
3 6193 6194 6345 
3 6346 6193 6345 
3 6346 6344 6193 
3 6311 6194 6195 
3 6311 6345 6194 
3 6197 6196 6198 
3 6203 6197 6347 
3 6197 6198 6347 
3 6198 6348 6347 
3 6199 6348 6198 
3 6199 6350 6349 
3 6199 6349 6348 
3 6199 6200 6350 
3 6350 6200 6351 
3 6201 6351 6200 
3 6201 6338 6351 
3 6353 6352 6202 
3 6353 6202 6203 
3 6352 6207 6202 
3 6353 6203 6347 
3 6204 6355 6354 
3 6207 6355 6204 
3 6204 6354 6356 
3 6356 6205 6204 
3 6356 6357 6205 
3 6205 6357 6208 
3 6206 6205 6208 
3 6207 6352 6355 
3 6358 6208 6357 
3 6358 6359 6208 
3 6209 6208 6359 
3 6360 6209 6359 
3 6209 6360 6210 
3 6211 6210 6360 
3 6361 6212 6211 
3 6211 6360 6362 
3 6362 6361 6211 
3 6361 6214 6212 
3 6361 6215 6214 
3 6361 6234 6215 
3 6217 6272 6216 
3 6273 6272 6217 
3 6273 6217 6218 
3 6273 6218 6219 
3 6219 6363 6274 
3 6273 6219 6274 
3 6220 6363 6219 
3 6220 6365 6364 
3 6366 6363 6220 
3 6366 6220 6367 
3 6220 6368 6367 
3 6220 6364 6368 
3 6220 6221 6365 
3 6365 6221 6222 
3 6365 6222 6223 
3 6369 6365 6223 
3 6369 6223 6224 
3 6369 6224 6225 
3 6369 6225 6226 
3 6370 6369 6226 
3 6370 6226 6371 
3 6371 6226 6227 
3 6230 6371 6227 
3 6229 6227 6228 
3 6230 6227 6229 
3 6230 6372 6371 
3 6230 6373 6372 
3 6230 6231 6373 
3 6373 6231 6374 
3 6231 6232 6374 
3 6374 6232 6233 
3 6375 6374 6233 
3 6375 6233 6234 
3 6234 6362 6375 
3 6362 6234 6361 
3 6247 6236 6235 
3 6247 6376 6236 
3 6236 6376 6276 
3 6377 6237 6238 
3 6377 6245 6237 
3 6241 6377 6238 
3 6239 6242 6378 
3 6239 6378 6379 
3 6239 6379 6240 
3 6380 6240 6379 
3 6380 6241 6240 
3 6241 6381 6377 
3 6380 6381 6241 
3 6382 6242 6254 
3 6382 6378 6242 
3 6243 6383 6244 
3 6245 6383 6243 
3 6384 6244 6383 
3 6246 6244 6384 
3 6245 6385 6383 
3 6245 6377 6385 
3 6246 6384 6386 
3 6247 6246 6386 
3 6247 6386 6376 
3 6387 6249 6248 
3 6387 6248 6262 
3 6250 6249 6387 
3 6250 6387 6388 
3 6250 6389 6251 
3 6250 6388 6389 
