NORM_ASCII
1451 2880
   0.0023452    0.0005016    0.0028186   -0.4246607   -0.7285935    0.5374150
   0.0021480   -0.0006220    0.0008473   -0.4222114    0.2282649    0.8772871
   0.0024780   -0.0011651    0.0012223   -0.6401740    0.2316955    0.7324578
   0.0031656   -0.0017322    0.0022785   -0.7528134   -0.1825905    0.6324024
   0.0037147   -0.0002809    0.0031387   -0.7818502   -0.2783980    0.5578573
   0.0035716   -0.0009816    0.0029580   -0.7107398   -0.1632058    0.6842607
   0.0034683   -0.0015514    0.0026912   -0.5392239   -0.3854312    0.7487860
   0.0028068   -0.0019122    0.0017930   -0.7279450   -0.0315497    0.6849092
   0.0037414    0.0002043    0.0037949   -0.4093857   -0.7440835    0.5279613
   0.0029361    0.0005850    0.0035405   -0.5702439   -0.6792636    0.4619772
   0.0014878   -0.0004448    0.0005451   -0.2699909   -0.2692231    0.9244587
   0.0009295    0.0000342    0.0007254   -0.1574777   -0.7935918    0.5877184
   0.0005676    0.0002893    0.0011591   -0.7211496    0.1982039    0.6638211
   0.0012659   -0.0002049    0.0005977   -0.2078015   -0.5288065    0.8229108
   0.0010917    0.0007755    0.0009665   -0.6797020    0.6618012    0.3162663
   0.0018510    0.0014103    0.0018276   -0.8330853    0.4953807    0.2461033
   0.0015378    0.0011906    0.0012255   -0.7858097    0.5733270    0.2319468
   0.0021414    0.0011085    0.0029429   -0.8506970    0.1157776    0.5127477
   0.0022256    0.0014550    0.0029104   -0.8653142    0.3362635    0.3716963
   0.0022505    0.0017808    0.0024905   -0.8554576    0.4495900    0.2570235
   0.0024437    0.0009759    0.0033289   -0.7638830   -0.2583916    0.5913684
   0.0015495   -0.0014269    0.0007698   -0.4621303    0.1878123    0.8666961
   0.0019867   -0.0017498    0.0010875   -0.5014104    0.1701029    0.8483234
   0.0008977   -0.0008947    0.0003195   -0.3361438   -0.0048919    0.9417980
   0.0023703   -0.0020124    0.0013875   -0.5970821    0.0700616    0.7991147
   0.0030718   -0.0022439    0.0019245   -0.4766907   -0.4529584    0.7533888
   0.0034029   -0.0020375    0.0022810   -0.2518190   -0.6405993    0.7254100
   0.0038767   -0.0007402    0.0033007   -0.4615917   -0.3027610    0.8338279
   0.0042387   -0.0005028    0.0035369   -0.2734288   -0.4716421    0.8383260
   0.0038207   -0.0013074    0.0029562   -0.2057790   -0.5342522    0.8198961
   0.0039167   -0.0016755    0.0026722    0.0176777   -0.6748110    0.7377789
   0.0027278   -0.0026389    0.0015765   -0.4267881   -0.3339167    0.8404472
   0.0045217    0.0000872    0.0039273    0.0424416   -0.6661143    0.7446412
   0.0033789    0.0006890    0.0042996   -0.5521452   -0.7033546    0.4476917
   0.0039491    0.0006818    0.0047678   -0.1907872   -0.8733886    0.4480989
   0.0044288    0.0004662    0.0044041    0.0762667   -0.8309247    0.5511330
   0.0029956    0.0011583    0.0042443   -0.8212963   -0.3125172    0.4772896
   0.0009008   -0.0004711    0.0003847   -0.2031376   -0.3413223    0.9177332
   0.0006233   -0.0001808    0.0004316    0.0125393   -0.5710753    0.8208019
   0.0001677    0.0001110    0.0008207   -0.5957909    0.0478264    0.8017143
   0.0003518    0.0002973    0.0004761   -0.6570839    0.7343900    0.1700355
   0.0006512    0.0005463    0.0005428   -0.6437634    0.7257856    0.2424953
   0.0016172    0.0015633    0.0003331   -0.7261261    0.6726449    0.1424418
   0.0009348    0.0009080    0.0002584   -0.6654068    0.7021019    0.2535482
   0.0018889    0.0017083    0.0012191   -0.8244158    0.5383067    0.1748272
   0.0023286    0.0022406    0.0017714   -0.8507172    0.4933491    0.1813477
   0.0023836    0.0013974    0.0032650   -0.8544617    0.1647565    0.4926972
   0.0026605    0.0020408    0.0033425   -0.8744853    0.3610702    0.3238884
   0.0027327    0.0026734    0.0025117   -0.8674877    0.4474600    0.2173582
   0.0026631    0.0014915    0.0037352   -0.8749165    0.0832044    0.4770724
   0.0014062   -0.0021543    0.0008183   -0.5044752    0.0713931    0.8604695
   0.0011082   -0.0016587    0.0005719   -0.5341644    0.1033324    0.8390416
   0.0018632   -0.0023903    0.0010649   -0.5100290   -0.0339368    0.8594875
  -0.0000739   -0.0010508    0.0001739    0.1581892   -0.3706860    0.9151875
   0.0003984   -0.0013346    0.0000510   -0.3516666   -0.1079159    0.9298843
   0.0005357   -0.0007768    0.0002376   -0.1285563   -0.1534309    0.9797613
   0.0036200   -0.0022631    0.0020734   -0.1181986   -0.6565162    0.7449937
   0.0042531   -0.0019387    0.0023634    0.1319848   -0.7160207    0.6854885
   0.0044247   -0.0007939    0.0033694    0.0430689   -0.5768186    0.8157361
   0.0048231   -0.0003850    0.0035891    0.1636596   -0.5676673    0.8068267
   0.0046105   -0.0010986    0.0031052    0.2123935   -0.6294713    0.7474322
   0.0048997   -0.0012635    0.0028346    0.3745391   -0.6504771    0.6607572
   0.0019693   -0.0032804    0.0009192   -0.4390713   -0.3846471    0.8119501
   0.0023904   -0.0033736    0.0010195   -0.0744231   -0.6877973    0.7220776
   0.0018693   -0.0028223    0.0010040   -0.5005828   -0.1949891    0.8434430
   0.0034201   -0.0026149    0.0017484    0.0126054   -0.6983784    0.7156178
   0.0052178    0.0004720    0.0040683    0.4214522   -0.6259343    0.6561892
   0.0047803    0.0004053    0.0042168    0.2601412   -0.7536065    0.6036587
   0.0035460    0.0010825    0.0051523   -0.6403296   -0.6462898    0.4150753
   0.0047200    0.0009867    0.0052672    0.3283687   -0.8686530    0.3709663
   0.0041068    0.0010299    0.0056642   -0.2196110   -0.9131150    0.3434995
   0.0050212    0.0007191    0.0045011    0.3954216   -0.7477994    0.5333271
   0.0033157    0.0015677    0.0051536   -0.9197935   -0.1510847    0.3621509
   0.0030574    0.0019835    0.0044232   -0.9237224    0.1505119    0.3522543
   0.0002847   -0.0005236    0.0003095    0.1003027   -0.3855000    0.9172399
  -0.0002196   -0.0001644    0.0007461   -0.2725197   -0.0490204    0.9609006
   0.0000000    0.0000000    0.0000000   -0.8071890    0.5852472    0.0770178
   0.0004934    0.0006507   -0.0001833   -0.6926414    0.6726818    0.2602829
   0.0023024    0.0024482    0.0008230   -0.7502112    0.6608862    0.0203149
   0.0016926    0.0017176   -0.0006128   -0.5482490    0.8300380    0.1022742
   0.0010613    0.0012529   -0.0004119   -0.5860147    0.7596288    0.2820477
   0.0021064    0.0020750   -0.0005145   -0.6469459    0.7580227   -0.0828406
   0.0026908    0.0028338    0.0019390   -0.8658609    0.4698143    0.1719286
   0.0031530    0.0027415    0.0039772   -0.8999911    0.3565632    0.2507563
   0.0030290    0.0029084    0.0032285   -0.8805331    0.4183947    0.2227273
   0.0032495    0.0036203    0.0026507   -0.8782928    0.4354098    0.1975347
   0.0011235   -0.0025869    0.0006328   -0.5419330   -0.1042140    0.8339353
  -0.0000290   -0.0017399   -0.0000837   -0.1794008   -0.1992105    0.9633953
  -0.0002084   -0.0014085   -0.0000025    0.2202455   -0.4273598    0.8768441
  -0.0008287   -0.0016098    0.0003006   -0.0799120   -0.6546824    0.7516681
  -0.0006414   -0.0005539    0.0007621   -0.6213479    0.1210930    0.7741210
   0.0001780   -0.0021326   -0.0000306   -0.4388232   -0.0922575    0.8938248
   0.0043303   -0.0024170    0.0017728    0.2236711   -0.7557380    0.6154927
   0.0048961   -0.0020756    0.0019168    0.3188305   -0.7152056    0.6219550
   0.0050901   -0.0005489    0.0033347    0.3861555   -0.5800660    0.7172219
   0.0053555   -0.0006930    0.0030366    0.5360380   -0.5496775    0.6407167
   0.0053293   -0.0016987    0.0020516    0.3823364   -0.6450880    0.6615741
   0.0056584   -0.0013265    0.0021701    0.4695178   -0.5469905    0.6930761
   0.0057773   -0.0009559    0.0023776    0.5521640   -0.5190210    0.6524815
   0.0018760   -0.0036545    0.0006444   -0.3242027   -0.6395346    0.6970568
   0.0013421   -0.0034782    0.0004108   -0.5172412   -0.4275423    0.7413967
   0.0019266   -0.0038261    0.0004229   -0.0074053   -0.9041252    0.4272034
   0.0028270   -0.0034248    0.0008873    0.1832300   -0.8497580    0.4943057
   0.0035506   -0.0029251    0.0013472    0.1691080   -0.7916850    0.5870582
   0.0055600   -0.0001768    0.0032685    0.6158088   -0.5029676    0.6064678
   0.0058688    0.0002455    0.0032548    0.6838850   -0.5016555    0.5297576
   0.0058004    0.0007527    0.0038966    0.5914959   -0.6065534    0.5312490
   0.0056101    0.0009641    0.0042601    0.5436453   -0.5997481    0.5871559
   0.0038546    0.0014388    0.0061495   -0.7408420   -0.5291078    0.4137610
   0.0035313    0.0014111    0.0056094   -0.8391764   -0.3610664    0.4067113
   0.0054298    0.0012153    0.0048189    0.5974929   -0.6853623    0.4162701
   0.0054147    0.0015474    0.0055159    0.6349971   -0.7040691    0.3179078
   0.0049914    0.0014978    0.0062901    0.5545097   -0.7874360    0.2691903
   0.0044946    0.0011674    0.0061154    0.2185416   -0.9308826    0.2927408
   0.0042076    0.0012259    0.0063422   -0.2779629   -0.8966002    0.3447386
   0.0035578    0.0017465    0.0058016   -0.8997424   -0.1066326    0.4231940
   0.0034536    0.0022353    0.0054742   -0.9437488    0.1133010    0.3106463
   0.0033920    0.0027666    0.0048352   -0.9293005    0.2781675    0.2429472
  -0.0004186   -0.0008037    0.0000696   -0.8930599    0.3633129   -0.2654201
   0.0001325    0.0004224   -0.0007309   -0.8191118    0.5356131    0.2053645
  -0.0000750    0.0000393   -0.0006452   -0.8935426    0.4307279    0.1267089
  -0.0002401   -0.0003762   -0.0006565   -0.9416312    0.3331013    0.0487262
   0.0006870    0.0010600   -0.0006633   -0.6376926    0.6916010    0.3391700
   0.0004726    0.0010238   -0.0010411   -0.7213934    0.6167250    0.3150266
   0.0026908    0.0028338    0.0019390   -0.6405908    0.7578924   -0.1234605
   0.0031028    0.0026601   -0.0012649   -0.5483197    0.8266801   -0.1262759
   0.0014154    0.0016998   -0.0010140   -0.3559193    0.8320235    0.4255095
   0.0024245    0.0021480   -0.0014758   -0.3344297    0.8766113   -0.3459905
   0.0008933    0.0014493   -0.0010607   -0.5768637    0.6982275    0.4239182
   0.0031028    0.0026601   -0.0012649   -0.2958087    0.4535374   -0.8407146
   0.0033762    0.0034713    0.0035588   -0.8939098    0.4038009    0.1946026
   0.0034695    0.0033087    0.0043207   -0.9113821    0.3616053    0.1965308
   0.0036120    0.0041921    0.0030777   -0.9014962    0.3980533    0.1698767
   0.0007576   -0.0026100    0.0003786   -0.5727417   -0.2305586    0.7866446
  -0.0002749   -0.0020773   -0.0001708   -0.3868908   -0.0968647    0.9170239
  -0.0005221   -0.0018271   -0.0000752   -0.8513302   -0.1752490    0.4944944
  -0.0006464   -0.0022970   -0.0003741   -0.9324686   -0.1442184    0.3312151
   0.0000026   -0.0030199   -0.0003414   -0.4914160   -0.3072537    0.8149267
  -0.0005105   -0.0029322   -0.0005138   -0.7997170   -0.3878963    0.4582458
   0.0044348   -0.0027343    0.0013199    0.2400132   -0.8220848    0.5163044
   0.0050341   -0.0025740    0.0012384    0.2572104   -0.8006711    0.5410810
   0.0055067   -0.0024349    0.0012015    0.2547689   -0.7311509    0.6328595
   0.0059214   -0.0002051    0.0027465    0.7584021   -0.3911938    0.5213383
   0.0058082   -0.0019952    0.0015344    0.2624862   -0.6468457    0.7160249
   0.0062038   -0.0016419    0.0016475    0.3352854   -0.5367232    0.7742815
   0.0061656   -0.0010796    0.0020083    0.5255421   -0.3565297    0.7724585
   0.0011684   -0.0038589   -0.0000406   -0.3658953   -0.7936572    0.4860339
   0.0004050   -0.0033172   -0.0001918   -0.5178526   -0.4603808    0.7210258
   0.0015525   -0.0040324   -0.0004009    0.0447594   -0.9984096    0.0342762
   0.0019132   -0.0039658   -0.0001075    0.2473759   -0.9675854    0.0508299
   0.0023742   -0.0037887    0.0002811    0.2619984   -0.9319156    0.2507793
   0.0036435   -0.0031811    0.0008790    0.2579446   -0.8875485    0.3817358
   0.0061284    0.0006999    0.0032496    0.8104431   -0.5089294    0.2901256
   0.0062060    0.0011703    0.0039528    0.5456467   -0.6072069    0.5775547
   0.0059920    0.0015210    0.0043348    0.6525659   -0.5287470    0.5427563
   0.0037774    0.0022521    0.0063613   -0.9424674   -0.0231993    0.3334920
   0.0041572    0.0014052    0.0066826   -0.4672834   -0.7664224    0.4407300
   0.0041222    0.0017698    0.0071509   -0.8293678   -0.4961880    0.2568006
   0.0058066    0.0017162    0.0050399    0.7175221   -0.6128586    0.3310081
   0.0059293    0.0021355    0.0055639    0.7367668   -0.6025017    0.3068653
   0.0055459    0.0019357    0.0060889    0.7142065   -0.6316018    0.3016427
   0.0048506    0.0016426    0.0072374    0.4910706   -0.8637399    0.1131507
   0.0053972    0.0021045    0.0068301    0.7752461   -0.5947096    0.2128708
   0.0044668    0.0014141    0.0068360    0.0166042   -0.9438497    0.3299577
   0.0035864    0.0028416    0.0055155   -0.9425216    0.2324205    0.2400703
   0.0036407    0.0026004    0.0059033   -0.9385288    0.1544509    0.3087210
   0.0036984    0.0035279    0.0050845   -0.9422817    0.2892506    0.1686397
  -0.0004068   -0.0010347   -0.0006472   -0.9858937    0.1647205   -0.0296769
  -0.0000757    0.0002178   -0.0012744   -0.9191106    0.3705931    0.1337779
   0.0001778    0.0007781   -0.0013472   -0.8149290    0.5114485    0.2726006
  -0.0003376   -0.0005636   -0.0015460   -0.9766137    0.1944659    0.0916989
   0.0003751    0.0012115   -0.0016364   -0.7548583    0.5813767    0.3036281
   0.0007655    0.0017599   -0.0017420   -0.5396375    0.8208897   -0.1868996
   0.0032495    0.0036203    0.0026507   -0.7010533    0.6928373   -0.1688216
   0.0031028    0.0026601   -0.0012649   -0.6729913    0.7238070   -0.1522699
   0.0011287    0.0020291   -0.0015282   -0.3199511    0.9474246   -0.0042249
   0.0032430    0.0021056   -0.0016167   -0.1550086    0.5708968   -0.8062562
   0.0017683    0.0018172   -0.0016507   -0.0308950    0.6190181   -0.7847688
   0.0017609    0.0020859   -0.0014672   -0.0171777    0.5635812   -0.8258820
   0.0036265    0.0025387   -0.0014779   -0.0801046    0.3796802   -0.9216432
   0.0040410    0.0029119   -0.0014261    0.0030711   -0.0290118   -0.9995744
   0.0042092    0.0034225   -0.0015657    0.0933462   -0.2543971   -0.9625843
   0.0037193    0.0040571    0.0040225   -0.9205286    0.3622301    0.1463435
   0.0038826    0.0047822    0.0032507   -0.8612549    0.5065719   -0.0403113
  -0.0004529   -0.0015539   -0.0010847   -0.9947672    0.0624894   -0.0808285
  -0.0004070   -0.0024989   -0.0009602   -0.9040134   -0.2409338   -0.3531439
  -0.0004284   -0.0020969   -0.0011671   -0.9548362   -0.1543248   -0.2539129
  -0.0001849   -0.0035738   -0.0007179   -0.7480385   -0.6328993    0.1996918
  -0.0001624   -0.0028688   -0.0011778   -0.7933265   -0.3890440   -0.4682710
   0.0044917   -0.0029638    0.0008418    0.2357882   -0.8992710    0.3683961
   0.0050407   -0.0029820    0.0005049    0.1649444   -0.9283139    0.3332065
   0.0054800   -0.0027929    0.0007283    0.1706249   -0.8577100    0.4849956
   0.0060634   -0.0026634    0.0007449    0.1598526   -0.7985841    0.5802676
   0.0063113   -0.0023094    0.0010821    0.1944164   -0.7066100    0.6803709
   0.0062846   -0.0002461    0.0021441    0.7951933   -0.0280797    0.6057055
   0.0061480    0.0002476    0.0025585    0.9231476   -0.2299444    0.3080974
   0.0066999   -0.0020557    0.0012176    0.1860538   -0.6189357    0.7630875
   0.0066850   -0.0014924    0.0015783    0.2895375   -0.4015614    0.8688593
   0.0068104   -0.0008184    0.0016996    0.4709589   -0.0351237    0.8814556
   0.0065230   -0.0006059    0.0019004    0.5978078   -0.0614037    0.7992843
   0.0006646   -0.0038222   -0.0004513   -0.3578952   -0.7975593    0.4856028
   0.0010155   -0.0040040   -0.0007602   -0.0581972   -0.9981687   -0.0165051
   0.0023743   -0.0037428   -0.0005703    0.3139006   -0.9248884   -0.2145876
   0.0013291   -0.0039647   -0.0008637    0.1904544   -0.9154848   -0.3544217
   0.0036283   -0.0033462   -0.0000627    0.3016335   -0.9515684   -0.0594545
   0.0036627   -0.0033162    0.0003467    0.2850697   -0.9464264    0.1516980
   0.0063812    0.0009859    0.0024569    0.9214017   -0.3835291    0.0626437
   0.0066519    0.0013861    0.0031736    0.7849933   -0.6194060    0.0110361
   0.0064089    0.0011389    0.0034700    0.7223557   -0.6567839    0.2164190
   0.0066929    0.0014715    0.0036840    0.7026939   -0.6529970    0.2825177
   0.0065035    0.0014676    0.0040339    0.5365342   -0.5557608    0.6350284
   0.0066979    0.0018925    0.0041587    0.4891755   -0.5120235    0.7060732
   0.0062161    0.0022450    0.0049682    0.8194728   -0.5278510    0.2232435
   0.0064168    0.0024483    0.0045621    0.5702349   -0.5480054    0.6119822
   0.0037860    0.0030986    0.0060563   -0.9583913    0.1707926    0.2287269
   0.0039875    0.0024311    0.0071483   -0.9771156   -0.0594399    0.2042352
   0.0039057    0.0028654    0.0067387   -0.9753059    0.0749682    0.2077454
   0.0041077    0.0022646    0.0079439   -0.9932149   -0.1119982    0.0313142
   0.0042217    0.0017103    0.0079375   -0.8717674   -0.4867820   -0.0553613
   0.0044329    0.0015548    0.0076881   -0.2237133   -0.9744974   -0.0175267
   0.0065909    0.0029373    0.0055497    0.5744667   -0.7841489    0.2347307
   0.0059268    0.0025278    0.0062135    0.7742663   -0.5085190    0.3767228
   0.0050777    0.0018519    0.0076975    0.7210986   -0.6928078   -0.0058474
   0.0047047    0.0016078    0.0079309    0.3890255   -0.9200121   -0.0472959
   0.0054695    0.0023666    0.0073103    0.8537187   -0.5169715    0.0624893
   0.0058653    0.0030402    0.0069207    0.7690331   -0.6070559    0.2001778
   0.0039485    0.0041426    0.0058727   -0.9844676    0.1517002    0.0883771
   0.0039544    0.0045019    0.0047472   -0.9637597    0.2618667    0.0509230
  -0.0001380    0.0002481   -0.0019905   -0.9269661    0.3729578    0.0404524
   0.0000975    0.0011073   -0.0021093   -0.8207848    0.5489170   -0.1581216
  -0.0004088   -0.0012297   -0.0019760   -0.9979150   -0.0556468    0.0326984
  -0.0004212   -0.0000267   -0.0025771   -0.8685713    0.4537063   -0.1993351
  -0.0004525   -0.0006810   -0.0022450   -0.9780953    0.0400117    0.2042757
   0.0004253    0.0014366   -0.0019703   -0.4604035    0.7647907   -0.4506926
   0.0008442    0.0013513   -0.0020620   -0.0618521    0.6557719   -0.7524212
   0.0042092    0.0034225   -0.0015657   -0.5351092    0.8224619   -0.1929108
   0.0036120    0.0041921    0.0030777   -0.6263536    0.7333120   -0.2644518
   0.0023159    0.0014072   -0.0020953   -0.0625846    0.6691638   -0.7404749
   0.0035231    0.0018963   -0.0018306   -0.0379244    0.5881957   -0.8078289
   0.0042364    0.0023613   -0.0013969    0.1409207    0.3822805   -0.9132376
   0.0045014    0.0029418   -0.0013716    0.2232775   -0.2072707   -0.9524631
   0.0048722    0.0033983   -0.0014403    0.2215582   -0.2966266   -0.9289374
   0.0053102    0.0036842   -0.0014198   -0.0065948    0.4011711   -0.9159794
   0.0039551    0.0046658    0.0040326   -0.9427049    0.3151186    0.1095795
   0.0040706    0.0051950    0.0037903   -0.9765641    0.1629216    0.1406383
   0.0041651    0.0057773    0.0040831   -0.9501170    0.2624595   -0.1685014
   0.0058790    0.0036710   -0.0011302    0.2773714    0.3783248   -0.8831395
  -0.0003409   -0.0018304   -0.0018577   -0.9603046   -0.2495180   -0.1247230
  -0.0002326   -0.0023388   -0.0015920   -0.8752433   -0.3792258   -0.3002282
   0.0004509   -0.0040382   -0.0010891   -0.2769202   -0.8978243   -0.3423840
   0.0003019   -0.0032056   -0.0014997   -0.6037520   -0.5318625   -0.5938062
   0.0001198   -0.0027143   -0.0018089   -0.6777391   -0.5822543   -0.4490541
   0.0045479   -0.0031123    0.0003395    0.1995293   -0.9701707    0.1376841
   0.0047948   -0.0031264   -0.0001026    0.0964645   -0.9934219    0.0617049
   0.0053809   -0.0030730    0.0000725    0.1014856   -0.9639937    0.2457984
   0.0061785   -0.0029323    0.0002566    0.1131799   -0.9300377    0.3496000
   0.0068704   -0.0026583    0.0005758    0.1308360   -0.8169118    0.5617268
   0.0069634   -0.0000577    0.0014443    0.5787782    0.2471858    0.7771196
   0.0067372    0.0002695    0.0015034    0.6939004    0.2790947    0.6637834
   0.0065259    0.0005247    0.0016761    0.8709829    0.1043923    0.4800947
   0.0063173    0.0005543    0.0021553    0.9488038   -0.1200981    0.2921435
   0.0073204   -0.0024590    0.0007500    0.1205444   -0.7403285    0.6613492
   0.0073562   -0.0019054    0.0012000    0.1514321   -0.5184717    0.8415791
   0.0073385   -0.0012955    0.0014559    0.2958506   -0.1309743    0.9462125
   0.0075502   -0.0005509    0.0012729    0.4150372    0.2143659    0.8841897
   0.0011234   -0.0037210   -0.0013999    0.1745504   -0.8173766   -0.5490243
   0.0029719   -0.0034600   -0.0007956    0.2941372   -0.9146121   -0.2774312
   0.0019204   -0.0036123   -0.0011904    0.2435565   -0.8357356   -0.4921649
   0.0038721   -0.0032551   -0.0003532    0.2153211   -0.9705389   -0.1081254
   0.0064371    0.0010053    0.0019104    0.9746488   -0.1688561    0.1467901
   0.0066713    0.0015489    0.0024070    0.8321395   -0.5366498   -0.1398244
   0.0066248    0.0015249    0.0020928    0.9160718   -0.3854339   -0.1106942
   0.0070715    0.0018910    0.0030239    0.7604647   -0.6394521   -0.1131130
   0.0071766    0.0019844    0.0036502    0.7240005   -0.6642521    0.1859907
   0.0074589    0.0024694    0.0040518    0.6269181   -0.6078790    0.4872954
   0.0073247    0.0027712    0.0043700    0.4519555   -0.5856784    0.6728425
   0.0065263    0.0027402    0.0047633    0.6304445   -0.6934595    0.3487887
   0.0071149    0.0029048    0.0046481    0.3849361   -0.7173349    0.5807365
   0.0039479    0.0034673    0.0065961   -0.9805285    0.1161417    0.1583508
   0.0040265    0.0031148    0.0072776   -0.9905275    0.0376571    0.1320503
   0.0040496    0.0028329    0.0085087   -0.9923348   -0.0517644   -0.1122141
   0.0040769    0.0030513    0.0078866   -0.9998639   -0.0136233    0.0093007
   0.0041061    0.0021244    0.0085794   -0.9847962   -0.1346643   -0.1097360
   0.0042197    0.0013643    0.0088093   -0.6324127   -0.7714232   -0.0704302
   0.0072467    0.0031807    0.0056912    0.0765441   -0.9947165   -0.0684109
   0.0067524    0.0031627    0.0060466    0.0752106   -0.9613593    0.2648239
   0.0072316    0.0031615    0.0052056    0.3393483   -0.9404849    0.0181935
   0.0068664    0.0030266    0.0050203    0.3514808   -0.8964799    0.2697870
   0.0061825    0.0030802    0.0063175    0.5576906   -0.7411072    0.3738198
   0.0055429    0.0023458    0.0090449    0.7341086   -0.6784536   -0.0280247
   0.0052015    0.0019603    0.0086316    0.7084636   -0.7052162    0.0273757
   0.0056949    0.0025687    0.0087180    0.7934773   -0.6001357   -0.1011483
   0.0053916    0.0022520    0.0076928    0.8414208   -0.5399986   -0.0203099
   0.0049346    0.0016935    0.0081478    0.5456180   -0.8380337   -0.0007566
   0.0056040    0.0026106    0.0074033    0.8725745   -0.4869976    0.0380406
   0.0064551    0.0033342    0.0066973    0.3967478   -0.8369388    0.3769942
   0.0062665    0.0033668    0.0069581    0.5675191   -0.7735482    0.2820377
   0.0060831    0.0032905    0.0074669    0.7066419   -0.7074137    0.0149355
   0.0056883    0.0027900    0.0076923    0.8329089   -0.5522304   -0.0361156
   0.0040792    0.0051674    0.0052637   -0.9946675    0.0968766   -0.0353756
   0.0040417    0.0050982    0.0063123   -0.9998427    0.0045112   -0.0171522
   0.0040358    0.0041058    0.0068561   -0.9959708    0.0443796    0.0779271
   0.0040435    0.0048637    0.0042877   -0.9691482    0.2400016    0.0561335
   0.0041010    0.0051589    0.0045014   -0.9871650    0.1596352    0.0046647
   0.0000878    0.0005370   -0.0024771   -0.5728692    0.5226868   -0.6313631
   0.0007825    0.0006519   -0.0026326   -0.1845994    0.5128522   -0.8383947
  -0.0003554   -0.0017070   -0.0027431   -0.7548259   -0.2922085   -0.5872410
  -0.0004590   -0.0010381   -0.0024202   -0.9831797   -0.1299809    0.1283068
  -0.0006006   -0.0005355   -0.0027273   -0.7445615    0.0912442   -0.6612886
   0.0004326    0.0002958   -0.0027176   -0.2380072    0.3418862   -0.9091020
   0.0011280    0.0009726   -0.0024691   -0.0791473    0.6132978   -0.7858763
   0.0017053    0.0010688   -0.0024004   -0.0094749    0.6349587   -0.7724880
   0.0026438    0.0008078   -0.0026111   -0.0266822    0.5557300   -0.8309346
   0.0037055    0.0013504   -0.0023112   -0.0280509    0.6236472   -0.7812025
   0.0047053    0.0015194   -0.0021299    0.0772050    0.6353636   -0.7683440
   0.0047327    0.0020189   -0.0016159    0.1712296    0.6573005   -0.7339185
   0.0047014    0.0026078   -0.0012525    0.2746422    0.1619064   -0.9478175
   0.0051796    0.0029296   -0.0011638    0.3917187   -0.2590178   -0.8828739
   0.0041339    0.0059925    0.0048681   -0.9967413   -0.0172235   -0.0788042
   0.0041883    0.0064886    0.0040296   -0.9501763   -0.0399117   -0.3091474
   0.0041445    0.0055176    0.0047025   -0.9971583    0.0638601   -0.0399640
   0.0075025    0.0039430    0.0000744    0.4320002   -0.1057936   -0.8956470
   0.0062794    0.0033654   -0.0007005    0.5460670   -0.3735652   -0.7498399
  -0.0001026   -0.0020793   -0.0026158   -0.4835106   -0.5588157   -0.6737526
   0.0009642   -0.0034361   -0.0017341   -0.0296418   -0.6632305   -0.7478280
   0.0006303   -0.0029081   -0.0021699   -0.2881703   -0.6188658   -0.7307277
   0.0003425   -0.0029350   -0.0018233   -0.6069445   -0.5723004   -0.5514441
   0.0043619   -0.0030893   -0.0007986    0.0936355   -0.9689265   -0.2289406
   0.0055041   -0.0031168   -0.0003588    0.0390378   -0.9989956    0.0219951
   0.0062728   -0.0030749   -0.0003195    0.0653155   -0.9970602    0.0400598
   0.0068827   -0.0029999   -0.0002051    0.0972532   -0.9750386    0.1996036
   0.0075937   -0.0028167    0.0001085    0.1085286   -0.9031011    0.4154877
   0.0077055    0.0001042    0.0009505    0.3955221    0.3906744    0.8312255
   0.0070938    0.0006238    0.0010015    0.5597819    0.4218831    0.7132033
   0.0067440    0.0008950    0.0012048    0.7644642    0.3136372    0.5632283
   0.0065974    0.0013080    0.0012701    0.9500362    0.0923586    0.2981630
   0.0078971   -0.0025619    0.0004922    0.1343463   -0.7755392    0.6168387
   0.0077672   -0.0022500    0.0008663    0.1593946   -0.6694225    0.7255804
   0.0081696   -0.0019728    0.0010123    0.1474187   -0.4999718    0.8534025
   0.0076560   -0.0015740    0.0013142    0.2390460   -0.2141735    0.9470938
   0.0079680   -0.0008911    0.0012102    0.3215299    0.1663024    0.9321813
   0.0015818   -0.0034578   -0.0015057    0.1507062   -0.7355505   -0.6604946
   0.0027881   -0.0032828   -0.0014139    0.2293920   -0.8835565   -0.4082980
   0.0038225   -0.0031296   -0.0009719    0.2363632   -0.9298491   -0.2819806
   0.0065453    0.0014699    0.0017042    0.9817119   -0.1903282   -0.0041044
   0.0070018    0.0024163    0.0015027    0.7948948   -0.5578097   -0.2387270
   0.0073954    0.0024441    0.0025730    0.7420348   -0.6328519   -0.2210945
   0.0066623    0.0021925    0.0008519    0.9149330   -0.3440197   -0.2110642
   0.0066075    0.0019491    0.0009485    0.9966875   -0.0707852    0.0400435
   0.0078338    0.0027224    0.0033276    0.7693122   -0.6388029   -0.0094669
   0.0077472    0.0026766    0.0037516    0.7793725   -0.5964072    0.1920336
   0.0079198    0.0030902    0.0041672    0.6767606   -0.6321055    0.3774092
   0.0079988    0.0035353    0.0046783    0.4856562   -0.7861592    0.3822196
   0.0074670    0.0032868    0.0047251    0.5055441   -0.8233187    0.2580144
   0.0040692    0.0037182    0.0075484   -0.9996489    0.0056436    0.0258877
   0.0040654    0.0035204    0.0080885   -0.9982284   -0.0257607   -0.0536332
   0.0038820    0.0031073    0.0093532   -0.9871609   -0.1183155    0.1073068
   0.0039893    0.0039406    0.0086910   -0.9917618   -0.0272014   -0.1251745
   0.0040080    0.0022072    0.0090166   -0.9826542   -0.1854316   -0.0024227
   0.0044737    0.0015779    0.0099967   -0.0953868   -0.9154846    0.3908828
   0.0076645    0.0029949    0.0060089    0.2496211   -0.9661814    0.0646752
   0.0078555    0.0031921    0.0055270    0.3122694   -0.8865581   -0.3413248
   0.0069858    0.0035200    0.0066864    0.5286071   -0.5051162    0.6822259
   0.0075503    0.0030467    0.0063415    0.3622556   -0.5600470    0.7450626
   0.0079123    0.0034654    0.0050865    0.4673731   -0.8740791   -0.1324692
   0.0050357    0.0018763    0.0092909    0.6338670   -0.7711281    0.0597832
   0.0060734    0.0028245    0.0099713    0.6700477   -0.7410305   -0.0437030
   0.0063049    0.0031026    0.0095702    0.7221294   -0.6778814   -0.1378618
   0.0059904    0.0031518    0.0078770    0.7572454   -0.6429549   -0.1148408
   0.0065263    0.0036693    0.0073196    0.6039458   -0.7383395    0.3001736
   0.0063530    0.0034447    0.0083858    0.7155208   -0.6894077   -0.1129026
   0.0069483    0.0041159    0.0078161    0.7303518   -0.6829316   -0.0138074
   0.0040763    0.0057625    0.0056750   -0.9967914   -0.0286925   -0.0747241
   0.0040506    0.0048087    0.0069992   -0.9992706   -0.0370873    0.0091005
   0.0040014    0.0060377    0.0063004   -0.9914352   -0.0940888   -0.0905731
   0.0039811    0.0056073    0.0071537   -0.9933231   -0.1052359   -0.0472716
   0.0040671    0.0043494    0.0073201   -0.9998572   -0.0136968    0.0099023
   0.0007365    0.0000318   -0.0028754   -0.1670652    0.2445953   -0.9551243
   0.0011435    0.0003582   -0.0028351   -0.0998716    0.3523280   -0.9305324
   0.0004185   -0.0014451   -0.0026976    0.0762267   -0.2332584   -0.9694225
  -0.0001212   -0.0011035   -0.0027856   -0.0361629   -0.0721031   -0.9967414
   0.0001004   -0.0004605   -0.0028109   -0.1389032    0.0560639   -0.9887177
   0.0016415    0.0005487   -0.0027787   -0.0098455    0.4167827   -0.9089528
   0.0024041    0.0004744   -0.0028003    0.0009144    0.4141891   -0.9101904
   0.0028859    0.0002713   -0.0029008   -0.0219699    0.3155785   -0.9486451
   0.0033577    0.0008998   -0.0026086   -0.0361497    0.4844156   -0.8740908
   0.0042999    0.0010025   -0.0025579    0.0343036    0.5366112   -0.8431321
   0.0049482    0.0007162   -0.0026704    0.0796927    0.4513233   -0.8887949
   0.0053837    0.0009302   -0.0025033    0.1089247    0.5042866   -0.8566390
   0.0054058    0.0014489   -0.0021232    0.1524780    0.6556973   -0.7394671
   0.0057947    0.0017050   -0.0017528    0.2221715    0.7175967   -0.6600718
   0.0049691    0.0023656   -0.0012226    0.3262754    0.3951365   -0.8587267
   0.0052818    0.0026277   -0.0010283    0.3971521    0.0736720   -0.9147910
   0.0056858    0.0029240   -0.0008722    0.5441444   -0.1945904   -0.8161136
   0.0041135    0.0067556    0.0046441   -0.9887690   -0.0909800   -0.1185689
   0.0040311    0.0065082    0.0055286   -0.9871508   -0.1130751   -0.1129044
   0.0041697    0.0070365    0.0039655   -0.8978073    0.0607630   -0.4361764
   0.0062247    0.0028688   -0.0004427    0.6432511   -0.2761011   -0.7141402
   0.0067857    0.0030661    0.0000149    0.6951716   -0.5048738   -0.5117020
   0.0076073    0.0036618    0.0004801    0.6592907   -0.5895741   -0.4666243
   0.0081790    0.0037020    0.0011808    0.7870232   -0.3641635   -0.4979753
   0.0004589   -0.0024000   -0.0024164    0.1115500   -0.3601746   -0.9261916
   0.0012702   -0.0027568   -0.0021463    0.0600773   -0.5494237   -0.8333813
   0.0038947   -0.0029099   -0.0015499    0.1977113   -0.8999505   -0.3885863
   0.0046464   -0.0027879   -0.0016125    0.0404085   -0.9064632   -0.4203470
   0.0050418   -0.0030171   -0.0010170   -0.0179360   -0.9716117   -0.2359006
   0.0057444   -0.0030997   -0.0006610    0.0291585   -0.9928444   -0.1158005
   0.0065632   -0.0030252   -0.0010099    0.0450405   -0.9888337   -0.1420541
   0.0060018   -0.0029791   -0.0012596    0.0153964   -0.9581233   -0.2859419
   0.0075776   -0.0029552   -0.0004072    0.0937672   -0.9849049    0.1454992
   0.0072954   -0.0030035   -0.0007482    0.0627219   -0.9977439   -0.0239406
   0.0086761   -0.0027684   -0.0000934    0.0864311   -0.9430590    0.3212000
   0.0086546   -0.0025619    0.0003219    0.0798286   -0.8376405    0.5403571
   0.0086462   -0.0006284    0.0008926    0.2921821    0.2844915    0.9130686
   0.0084995   -0.0000049    0.0006883    0.3160728    0.4798092    0.8184626
   0.0077105    0.0007362    0.0005417    0.4167511    0.5976707    0.6849148
   0.0070883    0.0011911    0.0005982    0.6380912    0.5294236    0.5590620
   0.0067048    0.0015221    0.0008478    0.8840946    0.3158254    0.3444285
   0.0086545   -0.0022936    0.0006687    0.0936090   -0.6998940    0.7080860
   0.0089172   -0.0019408    0.0009130    0.1242169   -0.3970297    0.9093611
   0.0083841   -0.0015026    0.0011514    0.1502615   -0.1811317    0.9719119
   0.0081694   -0.0012671    0.0011948    0.2273133    0.0059402    0.9738036
   0.0020106   -0.0028280   -0.0021355   -0.0454744   -0.7095313   -0.7032051
   0.0030234   -0.0029192   -0.0020292    0.1499163   -0.8322421   -0.5337585
   0.0071729    0.0029961    0.0007649    0.7226850   -0.5864283   -0.3658254
   0.0073694    0.0027987    0.0015927    0.6917716   -0.6662642   -0.2784675
   0.0080090    0.0030592    0.0026364    0.7256956   -0.6616430   -0.1886650
   0.0066155    0.0019354    0.0007248    0.9855692    0.1502725    0.0779200
   0.0065549    0.0021875    0.0004208    0.9646712    0.1803939   -0.1920091
   0.0066288    0.0025948    0.0002835    0.7999420   -0.4137714   -0.4346101
   0.0083739    0.0033536    0.0035528    0.8929352   -0.4186317   -0.1655722
   0.0082317    0.0034613    0.0043178    0.6056676   -0.7106482    0.3579747
   0.0085604    0.0038049    0.0045021    0.9087876   -0.3617601   -0.2079296
   0.0083710    0.0037087    0.0049951    0.6479195   -0.7413312    0.1750097
   0.0040517    0.0042833    0.0078664   -0.9977733   -0.0392798   -0.0539027
   0.0038784    0.0039718    0.0094316   -0.9832738    0.0044588   -0.1820791
   0.0037276    0.0039289    0.0100820   -0.9151013   -0.1973241    0.3516430
   0.0051384    0.0021158    0.0105740   -0.1271898   -0.6124476    0.7802119
   0.0038773    0.0046400    0.0093644   -0.9882039   -0.0352981   -0.1490208
   0.0039323    0.0049148    0.0088440   -0.9914893   -0.0609389   -0.1150450
   0.0040036    0.0046583    0.0083076   -0.9949878   -0.0547764   -0.0836588
   0.0053320    0.0021738    0.0100980    0.6068783   -0.7913156    0.0742856
   0.0079029    0.0034999    0.0061223    0.6654528   -0.1185145    0.7369714
   0.0082693    0.0032915    0.0058106    0.8842456   -0.3447951    0.3150016
   0.0082261    0.0036873    0.0052450    0.8593847   -0.4470324    0.2482338
   0.0076170    0.0039670    0.0062055    0.7044826    0.0705710    0.7062040
   0.0069951    0.0040911    0.0070108    0.7981886   -0.5476916    0.2508563
   0.0072466    0.0041762    0.0064461    0.7589769   -0.3314699    0.5604300
   0.0060276    0.0027636    0.0105140    0.4324468   -0.6964409    0.5726778
   0.0072217    0.0037987    0.0104110    0.7005951   -0.6997380   -0.1397617
   0.0071019    0.0036088    0.0111270    0.2864541   -0.8107447    0.5105263
   0.0070104    0.0041315    0.0083512    0.7356250   -0.6623374   -0.1420036
   0.0075391    0.0048637    0.0078246    0.8190214   -0.5734573    0.0187241
   0.0073089    0.0044349    0.0086399    0.7954405   -0.5906451   -0.1356933
   0.0040455    0.0048364    0.0074177   -0.9973497   -0.0656185   -0.0314287
   0.0039244    0.0066999    0.0062014   -0.9812997   -0.1553820   -0.1136107
   0.0038768    0.0065626    0.0068431   -0.9837894   -0.1549170   -0.0903278
   0.0039945    0.0051487    0.0078835   -0.9941274   -0.0918292   -0.0572553
   0.0039156    0.0058464    0.0078513   -0.9898075   -0.1325823   -0.0519912
   0.0038201    0.0065330    0.0076770   -0.9861595   -0.1567624   -0.0539905
   0.0009868   -0.0002374   -0.0029310   -0.0912071    0.0116750   -0.9957635
   0.0014046    0.0001044   -0.0029309   -0.0179554    0.2114736   -0.9772188
   0.0010923   -0.0021936   -0.0024416   -0.0319736   -0.3665569   -0.9298461
   0.0011465   -0.0014786   -0.0026727   -0.0633330   -0.2662107   -0.9618320
   0.0006866   -0.0008256   -0.0028256   -0.0383269   -0.1661598   -0.9853537
   0.0017368   -0.0002873   -0.0029727   -0.0297511    0.0422174   -0.9986654
   0.0021497    0.0000167   -0.0029627   -0.0396988    0.1708205   -0.9845021
   0.0027449   -0.0006233   -0.0030266   -0.0641784    0.0437717   -0.9969780
   0.0032657   -0.0003971   -0.0030412   -0.0197980    0.1052530   -0.9942484
   0.0034211    0.0001835   -0.0029332   -0.0109872    0.2956577   -0.9552308
   0.0038080    0.0004962   -0.0028278    0.0151532    0.3725239   -0.9278989
   0.0048108    0.0001833   -0.0028795    0.0635528    0.2226437   -0.9728262
   0.0054848    0.0001933   -0.0028207    0.1261612    0.2827045   -0.9508741
   0.0058508    0.0004570   -0.0026710    0.1867559    0.3365386   -0.9229648
   0.0060519    0.0008694   -0.0024141    0.2393283    0.5104944   -0.8259040
   0.0063688    0.0010890   -0.0021311    0.3160711    0.6366248   -0.7034259
   0.0055504    0.0023891   -0.0010508    0.3853800    0.5580279   -0.7349062
   0.0060100    0.0018498   -0.0014648    0.4226125    0.7175718   -0.5536148
   0.0058353    0.0025771   -0.0005920    0.5750350    0.1668357   -0.8009373
   0.0040819    0.0073795    0.0043053   -0.9793460   -0.1448974   -0.1410186
   0.0039970    0.0071895    0.0050628   -0.9766668   -0.1583832   -0.1450402
   0.0038947    0.0071899    0.0057575   -0.9756264   -0.1747207   -0.1327621
   0.0040370    0.0080715    0.0038712   -0.8730369   -0.0826438   -0.4806003
   0.0062358    0.0024354   -0.0005352    0.6870732    0.5285171   -0.4985980
   0.0063606    0.0025677   -0.0001205    0.9231492   -0.0921143   -0.3732433
   0.0077181    0.0033973    0.0010417    0.6383672   -0.6809534   -0.3588728
   0.0077982    0.0030889    0.0019225    0.6525448   -0.7093011   -0.2666032
   0.0018031   -0.0025045   -0.0023805   -0.1490476   -0.5208017   -0.8405655
   0.0039136   -0.0024869   -0.0023085    0.1856045   -0.7577076   -0.6256439
   0.0057142   -0.0026346   -0.0019274    0.0151957   -0.8340091   -0.5515414
   0.0045108   -0.0024900   -0.0021434    0.0832069   -0.7885608   -0.6093016
   0.0072693   -0.0029488   -0.0011564    0.0433665   -0.9709900   -0.2351549
   0.0076415   -0.0028429   -0.0014206    0.0155157   -0.9172365   -0.3980408
   0.0083747   -0.0029192   -0.0011354    0.0258929   -0.9939689   -0.1065615
   0.0087696   -0.0028971   -0.0006910    0.0304911   -0.9849108    0.1703554
   0.0095586   -0.0026708    0.0000273    0.0033601   -0.9136195    0.4065564
   0.0099087   -0.0023947    0.0004712   -0.0043523   -0.7706543    0.6372386
   0.0093012   -0.0022388    0.0006630    0.0356829   -0.6304303    0.7754253
   0.0090552   -0.0013377    0.0009762    0.1734887    0.1011448    0.9796282
   0.0094227   -0.0005663    0.0006645    0.1747788    0.3944626    0.9021372
   0.0092960    0.0001432    0.0002773    0.2803627    0.6359384    0.7190126
   0.0087319    0.0005687    0.0001550    0.3716572    0.6834912    0.6282601
   0.0073692    0.0013422    0.0000698    0.5809010    0.7532577    0.3084749
   0.0078898    0.0009398    0.0002084    0.3661952    0.8142931    0.4503640
   0.0068207    0.0017283    0.0003481    0.7974587    0.5554970    0.2355478
   0.0093618   -0.0016970    0.0009630    0.0864070   -0.2289215    0.9696024
   0.0028315   -0.0027238   -0.0023423   -0.0003884   -0.7332414   -0.6799683
   0.0034199   -0.0025538   -0.0024142    0.1626561   -0.7078399   -0.6873905
   0.0065239    0.0021554    0.0000392    0.8454187    0.5325143   -0.0411798
   0.0064084    0.0023170    0.0001345    0.9575260    0.1155832   -0.2641675
   0.0038971    0.0088882    0.0037231   -0.6179582   -0.0582160   -0.7840526
   0.0086165    0.0042009    0.0050098    0.9907298    0.0303191    0.1324203
   0.0037139    0.0096517    0.0037373   -0.4591705    0.2210481   -0.8604070
   0.0038038    0.0044577    0.0098239   -0.9804914   -0.0016365   -0.1965550
   0.0036936    0.0047046    0.0103380   -0.9742343    0.0049573   -0.2254838
   0.0036386    0.0043918    0.0105310   -0.8463208   -0.4203478    0.3271832
   0.0038016    0.0055870    0.0095285   -0.9893068   -0.0686429   -0.1286862
   0.0037482    0.0051619    0.0100200   -0.9829872   -0.0364427   -0.1800224
   0.0039547    0.0051986    0.0084303   -0.9925009   -0.0896119   -0.0831366
   0.0038644    0.0056706    0.0088933   -0.9906212   -0.1009521   -0.0920778
   0.0082463    0.0044674    0.0054646    0.7183180   -0.3169437    0.6193270
   0.0077934    0.0046152    0.0060533    0.7675177   -0.3376734    0.5448792
   0.0076637    0.0046361    0.0063006    0.7473513   -0.4786947    0.4607792
   0.0076985    0.0048838    0.0067781    0.7669512   -0.6098715    0.1996062
   0.0072402    0.0041404    0.0092848    0.7701938   -0.6071990   -0.1952201
   0.0077767    0.0042988    0.0107530    0.7312918   -0.6531832   -0.1963771
   0.0080460    0.0043782    0.0113850    0.5135706   -0.5574401    0.6523081
   0.0035731    0.0047896    0.0108090   -0.7248074   -0.2012695    0.6588967
   0.0081850    0.0057909    0.0077374    0.8012462   -0.5751861    0.1648192
   0.0075967    0.0048490    0.0087708    0.8508025   -0.4996172   -0.1628425
   0.0085032    0.0064326    0.0085007    0.8428478   -0.5321702    0.0800154
   0.0082850    0.0060377    0.0088785    0.8846170   -0.4566077   -0.0946689
   0.0076838    0.0045978    0.0097255    0.8068132   -0.5433139   -0.2320828
   0.0037910    0.0072754    0.0064369   -0.9769442   -0.1827469   -0.1103797
   0.0037170    0.0072961    0.0071924   -0.9814021   -0.1785446   -0.0705107
   0.0038990    0.0057440    0.0083484   -0.9903188   -0.1220408   -0.0661410
   0.0038352    0.0062624    0.0082265   -0.9877942   -0.1460988   -0.0540170
   0.0037435    0.0068045    0.0083538   -0.9868054   -0.1559907   -0.0433820
   0.0036501    0.0074371    0.0080191   -0.9856806   -0.1649958   -0.0347871
   0.0014552   -0.0008703   -0.0028690   -0.0968393   -0.1901822   -0.9769610
   0.0019787   -0.0015204   -0.0027866   -0.1794217   -0.2577286   -0.9494123
   0.0022609   -0.0009158   -0.0029591   -0.1113357   -0.1003770   -0.9887006
   0.0033184   -0.0013162   -0.0030482   -0.0010324   -0.1120412   -0.9937030
   0.0038681   -0.0006808   -0.0030457    0.0913770    0.0019998   -0.9958144
   0.0041941   -0.0000806   -0.0029795    0.0787469    0.1319615   -0.9881220
   0.0049128   -0.0007293   -0.0029620    0.0722125   -0.0023532   -0.9973865
   0.0053296   -0.0004114   -0.0029314    0.0877863    0.0667832   -0.9938982
   0.0060368   -0.0004917   -0.0028462    0.1558863    0.0822275   -0.9843465
   0.0064212   -0.0001649   -0.0027241    0.2190510    0.2136971   -0.9520243
   0.0068128    0.0001311   -0.0025272    0.2525728    0.3193146   -0.9133702
   0.0071757    0.0003613   -0.0022929    0.2745387    0.4800741   -0.8331611
   0.0072710    0.0007568   -0.0019485    0.3329125    0.6825444   -0.6506169
   0.0064445    0.0019363   -0.0008285    0.6039376    0.7196315   -0.3426221
   0.0073626    0.0011549   -0.0013313    0.3923076    0.8219047   -0.4129980
   0.0039570    0.0077355    0.0046936   -0.9700631   -0.1816349   -0.1612030
   0.0038742    0.0076733    0.0052715   -0.9704521   -0.1879972   -0.1512605
   0.0037434    0.0079163    0.0058186   -0.9725106   -0.1906502   -0.1336998
   0.0037916    0.0084359    0.0048318   -0.9657848   -0.2036187   -0.1606213
   0.0067696    0.0018737   -0.0001500    0.7032452    0.7091372   -0.0507011
   0.0023969   -0.0020054   -0.0027811   -0.2056789   -0.3475237   -0.9148352
   0.0027060   -0.0023939   -0.0026343   -0.0301557   -0.5437756   -0.8386887
   0.0033366   -0.0022466   -0.0026885    0.1464749   -0.5752294   -0.8047709
   0.0043151   -0.0019485   -0.0026767   -0.0174972   -0.4532351   -0.8912193
   0.0044472   -0.0022399   -0.0024316    0.0161439   -0.7942584   -0.6073656
   0.0051885   -0.0020368   -0.0025761    0.1274901   -0.6187710   -0.7751572
   0.0061770   -0.0025059   -0.0020794    0.0495411   -0.7134462   -0.6989565
   0.0076321   -0.0026514   -0.0017577    0.0151230   -0.8006722   -0.5989118
   0.0088551   -0.0028542   -0.0014609   -0.0230590   -0.9482303   -0.3167452
   0.0096457   -0.0026168   -0.0018767   -0.0315806   -0.7911460   -0.6108115
   0.0093513   -0.0029326   -0.0010205   -0.0359252   -0.9989905    0.0269704
   0.0098903   -0.0028159   -0.0003187   -0.0309385   -0.9633010    0.2666347
   0.0109312   -0.0027061    0.0001165   -0.0585842   -0.8759133    0.4788985
   0.0099019   -0.0021566    0.0007318    0.0091600   -0.5565308    0.8307765
   0.0108140   -0.0023167    0.0006556   -0.0614291   -0.6571470    0.7512551
   0.0103604   -0.0019980    0.0008511   -0.0326727   -0.4507593    0.8920474
   0.0096113   -0.0019013    0.0008722    0.0203412   -0.3040095    0.9524518
   0.0097856   -0.0013150    0.0008898    0.0777402    0.1393398    0.9871884
   0.0102376   -0.0009384    0.0007569    0.0214114    0.3416434    0.9395857
   0.0101433   -0.0004766    0.0005006    0.0933350    0.5629458    0.8212068
   0.0102206   -0.0001711    0.0002509    0.1922686    0.6514894    0.7338899
   0.0098518    0.0002499   -0.0000803    0.2543745    0.8110209    0.5268194
   0.0089648    0.0007204   -0.0002818    0.3679420    0.8399216    0.3989366
   0.0076807    0.0012312   -0.0004033    0.4202580    0.9011517    0.1063425
   0.0070323    0.0016354   -0.0004888    0.5387905    0.8333443   -0.1234588
   0.0079911    0.0010678   -0.0001077    0.3194305    0.9150429    0.2462939
   0.0085781    0.0008697   -0.0002956    0.3469326    0.9140298    0.2102077
   0.0037120    0.0091561    0.0043628   -0.9599191   -0.2198186   -0.1738823
   0.0085595    0.0049264    0.0054208    0.8976339    0.2967542    0.3258684
   0.0035246    0.0100892    0.0042768    0.0196290    0.8436482   -0.5365375
   0.0035951    0.0095752    0.0044893   -0.9663731   -0.2033908   -0.1573377
   0.0035791    0.0055108    0.0107820   -0.9573706   -0.1056618    0.2688439
   0.0037643    0.0062261    0.0093652   -0.9907575   -0.1035852   -0.0875764
   0.0036576    0.0060871    0.0102940   -0.9850577   -0.0524873   -0.1640315
   0.0036956    0.0064262    0.0098623   -0.9898364   -0.0871828   -0.1123520
   0.0037752    0.0064357    0.0088288   -0.9892444   -0.1335972   -0.0595589
   0.0083631    0.0050187    0.0057384    0.8362303    0.1727206    0.5204675
   0.0081214    0.0050310    0.0060854    0.9532630   -0.0593509    0.2962551
   0.0086155    0.0060655    0.0069797    0.9954647   -0.0873278    0.0377342
   0.0081287    0.0047835    0.0106200    0.7509376   -0.5875312   -0.3014961
   0.0084591    0.0048137    0.0112870    0.6338588   -0.4220297    0.6481620
   0.0086297    0.0064665    0.0078712    0.9803830    0.1913132    0.0474169
   0.0083838    0.0060247    0.0094015    0.8713226   -0.4166104   -0.2592928
   0.0081892    0.0054245    0.0097655    0.8135993   -0.4800921   -0.3279752
   0.0086524    0.0067790    0.0090612    0.9499343    0.2365356    0.2041464
   0.0086271    0.0065446    0.0095366    0.9314562    0.2797552    0.2326509
   0.0036084    0.0081091    0.0066339   -0.9787524   -0.1845223   -0.0894159
   0.0035809    0.0079598    0.0074135   -0.9844569   -0.1692952   -0.0467299
