NORM_ASCII
4985 10074
3 688 686 518 
3 688 518 687 
3 519 689 690 
3 519 691 687 
3 519 690 692 
3 519 692 693 
3 519 693 691 
3 519 520 689 
3 694 520 521 
3 694 689 520 
3 694 521 695 
3 524 695 521 
3 696 522 523 
3 522 697 698 
3 522 698 527 
3 699 697 522 
3 699 522 700 
3 696 700 522 
3 696 523 585 
3 524 525 695 
3 525 701 695 
3 702 701 525 
3 525 528 703 
3 702 525 703 
3 704 527 698 
3 704 528 527 
3 704 705 528 
3 705 703 528 
3 529 533 547 
3 529 547 530 
3 532 548 546 
3 547 533 555 
3 533 706 555 
3 533 538 706 
3 534 535 707 
3 534 707 708 
3 534 709 538 
3 534 710 709 
3 711 534 708 
3 711 710 534 
3 536 712 535 
3 535 712 707 
3 536 713 712 
3 536 537 713 
3 537 714 713 
3 715 714 537 
3 715 537 716 
3 537 539 716 
3 717 706 538 
3 717 538 709 
3 716 539 542 
3 540 545 718 
3 540 718 719 
3 540 719 720 
3 540 720 721 
3 540 721 541 
3 541 721 720 
3 541 720 722 
3 541 723 542 
3 541 722 723 
3 723 724 542 
3 716 542 724 
3 675 543 544 
3 675 725 543 
3 543 726 727 
3 543 725 726 
3 543 727 728 
3 545 543 728 
3 718 545 728 
3 549 546 548 
3 550 558 729 
3 551 550 729 
3 551 730 552 
3 551 729 730 
3 731 553 552 
3 731 552 732 
3 732 552 730 
3 733 553 731 
3 733 554 553 
3 733 734 554 
3 554 734 559 
3 556 555 706 
3 556 706 717 
3 556 717 557 
3 735 557 717 
3 558 557 736 
3 735 736 557 
3 558 736 737 
3 738 558 737 
3 738 729 558 
3 739 559 734 
3 740 559 739 
3 564 560 559 
3 740 741 559 
3 564 559 742 
3 559 741 742 
3 564 561 560 
3 562 743 563 
3 562 565 743 
3 743 744 563 
3 745 563 744 
3 745 568 563 
3 564 742 565 
3 746 565 742 
3 746 743 565 
3 747 571 566 
3 747 566 567 
3 567 568 748 
3 747 567 749 
3 749 567 748 
3 568 750 748 
3 751 568 745 
3 751 750 568 
3 570 571 752 
3 570 753 754 
3 570 754 755 
3 570 755 580 
3 570 752 753 
3 747 756 571 
3 571 756 752 
3 757 656 572 
3 757 572 758 
3 573 758 572 
3 759 758 573 
3 759 573 760 
3 573 574 760 
3 761 760 574 
3 761 574 575 
3 761 575 576 
3 761 576 762 
3 762 576 763 
3 576 764 763 
3 576 577 764 
3 765 764 577 
3 765 577 578 
3 579 765 578 
3 579 766 767 
3 579 767 765 
3 768 766 579 
3 581 768 579 
3 580 755 769 
3 581 580 770 
3 580 769 770 
3 581 770 771 
3 581 771 768 
3 595 582 583 
3 595 584 582 
3 595 772 584 
3 772 586 584 
3 585 773 774 
3 585 775 773 
3 585 586 775 
3 696 585 774 
3 775 586 772 
3 600 587 776 
3 777 776 587 
3 777 587 592 
3 621 778 588 
3 589 588 778 
3 779 589 778 
3 779 780 589 
3 589 780 590 
3 781 590 780 
3 781 591 590 
3 591 782 783 
3 591 783 784 
3 591 784 777 
3 591 777 592 
3 781 782 591 
3 785 593 603 
3 785 786 593 
3 594 593 786 
3 787 599 594 
3 787 594 786 
3 595 596 772 
3 788 596 597 
3 789 790 596 
3 789 596 788 
3 772 596 790 
3 791 788 597 
3 598 791 597 
3 598 599 792 
3 598 793 791 
3 598 794 793 
3 795 598 792 
3 795 794 598 
3 787 792 599 
3 600 796 601 
3 600 797 796 
3 600 776 797 
3 601 796 798 
3 601 798 603 
3 601 603 602 
3 798 799 603 
3 785 603 799 
3 607 651 604 
3 605 609 608 
3 605 608 606 
3 607 609 611 
3 607 608 609 
3 607 611 651 
3 610 800 611 
3 801 610 651 
3 801 800 610 
3 651 611 800 
3 612 615 802 
3 612 802 803 
3 612 803 616 
3 638 804 613 
3 613 804 614 
3 804 805 614 
3 802 614 805 
3 802 615 614 
3 806 616 803 
3 806 617 616 
3 659 617 806 
3 659 660 617 
3 618 617 660 
3 620 807 621 
3 620 657 807 
3 621 807 778 
3 634 622 623 
3 625 624 808 
3 627 808 624 
3 625 636 626 
3 625 809 810 
3 625 810 636 
3 625 811 809 
3 625 808 811 
3 627 812 808 
3 627 813 812 
3 628 813 627 
3 628 814 813 
3 628 633 814 
3 629 815 630 
3 629 816 815 
3 632 816 629 
3 817 630 815 
3 817 633 630 
3 631 630 633 
3 632 818 819 
3 632 819 820 
3 632 634 818 
3 632 821 816 
3 632 820 821 
3 817 814 633 
3 634 658 818 
3 810 635 636 
3 810 640 635 
3 637 645 822 
3 639 637 822 
3 638 823 824 
3 649 804 638 
3 649 638 824 
3 638 639 825 
3 638 825 823 
3 639 822 826 
3 827 639 826 
3 827 825 639 
3 810 828 640 
3 829 640 828 
3 829 641 640 
3 830 642 641 
3 829 830 641 
3 830 831 642 
3 643 642 831 
3 643 831 647 
3 832 645 644 
3 833 644 834 
3 644 646 834 
3 833 832 644 
3 832 835 645 
3 822 645 835 
3 836 837 646 
3 833 646 837 
3 833 834 646 
3 836 646 650 
3 838 648 647 
3 839 647 831 
3 839 838 647 
3 838 840 648 
3 841 648 840 
3 649 648 841 
3 649 841 804 
3 649 824 650 
3 823 842 650 
3 823 650 824 
3 843 650 842 
3 843 836 650 
3 651 800 844 
3 801 651 844 
3 652 653 845 
3 652 845 657 
3 846 845 653 
3 846 653 654 
3 846 654 847 
3 847 654 848 
3 655 848 654 
3 655 656 849 
3 655 849 850 
3 655 850 848 
3 757 851 656 
3 852 849 656 
3 852 656 851 
3 853 807 657 
3 853 657 845 
3 659 818 658 
3 659 854 855 
3 659 806 854 
3 659 855 819 
3 659 819 818 
3 662 661 684 
3 856 662 684 
3 663 662 856 
3 663 857 664 
3 663 858 857 
3 663 859 858 
3 663 856 859 
3 860 665 664 
3 860 664 857 
3 666 665 667 
3 861 667 665 
3 861 665 860 
3 667 862 670 
3 861 862 667 
3 673 668 669 
3 863 669 671 
3 673 669 864 
3 864 669 865 
3 863 865 669 
3 671 670 866 
3 670 862 866 
3 867 671 866 
3 867 863 671 
3 673 868 672 
3 868 674 672 
3 673 869 868 
3 673 864 869 
3 676 674 870 
3 868 870 674 
3 675 678 725 
3 681 677 676 
3 871 872 676 
3 681 676 872 
3 871 676 870 
3 678 873 725 
3 678 680 873 
3 681 680 679 
3 681 874 680 
3 874 873 680 
3 681 872 875 
3 876 681 875 
3 876 874 681 
3 682 877 685 
3 682 683 878 
3 682 879 877 
3 682 878 879 
3 688 878 683 
3 688 683 686 
3 856 684 685 
3 856 685 880 
3 877 880 685 
3 687 691 881 
3 688 687 881 
3 688 882 878 
3 688 881 882 
3 883 690 689 
3 883 689 884 
3 689 885 884 
3 694 885 689 
3 883 886 690 
3 887 692 690 
3 690 886 888 
3 887 690 888 
3 881 691 693 
3 887 889 692 
3 889 693 692 
3 890 881 693 
3 890 693 889 
3 701 694 695 
3 701 885 694 
3 696 891 700 
3 696 774 891 
3 892 698 697 
3 699 893 697 
3 892 697 893 
3 892 894 698 
3 894 895 698 
3 704 698 895 
3 699 896 891 
3 699 891 897 
3 699 897 898 
3 699 700 896 
3 699 898 899 
3 699 899 893 
3 896 700 891 
3 701 900 885 
3 702 900 701 
3 702 901 900 
3 702 703 901 
3 901 703 705 
3 704 895 894 
3 704 894 705 
3 902 705 894 
3 901 705 902 
3 712 708 707 
3 712 903 708 
3 711 708 903 
3 735 717 709 
3 735 709 710 
3 711 904 710 
3 735 710 905 
3 904 906 710 
3 710 906 907 
3 710 907 905 
3 711 908 904 
3 711 909 908 
3 711 903 910 
3 711 910 911 
3 711 911 909 
3 912 712 713 
3 912 913 712 
3 913 903 712 
3 914 912 713 
3 914 713 714 
3 914 714 715 
3 914 715 915 
3 715 916 915 
3 715 716 916 
3 917 716 724 
3 918 916 716 
3 918 716 917 
3 718 919 719 
3 920 919 718 
3 921 920 718 
3 921 718 727 
3 718 728 727 
3 719 922 923 
3 720 719 923 
3 919 922 719 
3 720 923 924 
3 720 924 722 
3 722 924 925 
3 926 722 925 
3 927 928 722 
3 927 722 926 
3 928 929 722 
3 723 722 929 
3 723 929 724 
3 917 724 929 
3 930 726 725 
3 930 725 873 
3 931 727 726 
3 932 726 930 
3 931 726 932 
3 921 727 931 
3 738 730 729 
3 738 933 730 
3 732 730 934 
3 935 730 933 
3 935 934 730 
3 733 731 936 
3 936 731 937 
3 731 732 937 
3 938 937 732 
3 938 732 934 
3 733 939 940 
3 733 940 734 
3 733 936 939 
3 739 734 940 
3 735 905 736 
3 941 736 905 
3 941 737 736 
3 942 737 941 
3 942 943 737 
3 738 737 943 
3 738 944 933 
3 738 943 944 
3 945 946 739 
3 945 739 940 
3 740 739 946 
3 740 946 947 
3 740 947 948 
3 740 948 741 
3 746 741 948 
3 746 742 741 
3 949 743 746 
3 949 744 743 
3 745 744 949 
3 745 949 950 
3 751 745 950 
3 949 746 948 
3 747 749 756 
3 748 750 951 
3 749 748 951 
3 749 828 952 
3 829 828 749 
3 829 749 951 
3 749 952 756 
3 953 750 954 
3 953 955 750 
3 955 951 750 
3 751 954 750 
3 751 950 954 
3 956 752 756 
3 956 753 752 
3 753 957 754 
3 956 957 753 
3 958 754 957 
3 958 959 754 
3 755 754 959 
3 960 755 959 
3 960 961 755 
3 961 769 755 
3 956 756 952 
3 962 757 758 
3 962 851 757 
3 962 758 759 
3 759 963 964 
3 962 759 964 
3 759 760 963 
3 965 963 760 
3 761 965 760 
3 761 762 965 
3 762 966 967 
3 762 967 965 
3 762 763 966 
3 968 966 763 
3 968 763 969 
3 969 763 764 
3 970 969 764 
3 970 764 765 
3 970 765 767 
3 971 767 766 
3 945 766 946 
3 768 946 766 
3 971 766 945 
3 971 970 767 
3 768 947 946 
3 768 771 947 
3 972 770 769 
3 972 769 961 
3 973 771 770 
3 973 770 974 
3 972 974 770 
3 973 947 771 
3 775 772 790 
3 897 774 773 
3 897 773 975 
3 775 976 773 
3 975 773 976 
3 897 891 774 
3 775 790 976 
3 777 797 776 
3 777 977 797 
3 784 977 777 
3 807 978 778 
3 779 778 978 
3 779 979 780 
3 779 978 980 
3 779 980 981 
3 779 981 979 
3 780 979 982 
3 780 982 983 
3 781 780 983 
3 781 984 782 
3 781 983 984 
3 782 985 783 
3 984 985 782 
3 986 987 783 
3 986 783 985 
3 784 783 987 
3 784 988 977 
3 989 988 784 
3 989 784 987 
3 785 990 991 
3 785 799 990 
3 992 785 991 
3 992 786 785 
3 992 787 786 
3 795 787 993 
3 795 792 787 
3 992 993 787 
3 994 789 788 
3 994 788 791 
3 789 976 790 
3 789 995 976 
3 994 996 789 
3 789 996 995 
3 994 791 997 
3 793 997 791 
3 793 998 999 
3 793 794 998 
3 793 999 997 
3 795 998 794 
3 795 1000 998 
3 795 993 1000 
3 1001 796 797 
3 1001 798 796 
3 1001 797 977 
3 1001 1002 798 
3 798 1002 799 
3 799 1002 1003 
3 990 799 1003 
3 801 844 800 
3 1004 802 838 
3 802 805 840 
3 1004 803 802 
3 802 840 838 
3 1005 803 1004 
3 1005 806 803 
3 804 841 805 
3 805 841 840 
3 1005 854 806 
3 853 978 807 
3 1006 808 812 
3 1006 811 808 
3 810 809 828 
3 828 809 952 
3 811 952 809 
3 956 952 811 
3 1006 1007 811 
3 956 811 1007 
3 1006 812 1008 
3 813 1008 812 
3 817 813 814 
3 1006 813 817 
3 1006 1009 813 
3 813 1009 1008 
3 817 815 816 
3 1006 817 816 
3 1006 816 821 
3 855 1010 819 
3 820 819 1010 
3 820 1010 821 
3 1011 821 1010 
3 1011 1007 821 
3 1006 821 1007 
3 832 822 835 
3 832 1012 822 
3 1012 1013 822 
3 827 826 822 
3 827 822 843 
3 843 822 1013 
3 823 825 842 
3 827 843 825 
3 843 842 825 
3 829 951 1014 
3 829 1014 830 
3 1015 830 1016 
3 1015 831 830 
3 830 1014 1017 
3 1018 1016 830 
3 1018 830 1017 
3 1015 839 831 
3 832 1019 1012 
3 833 1020 832 
3 832 1020 1019 
3 1021 833 837 
3 1021 1022 833 
3 833 1022 1020 
3 1021 837 836 
3 1021 836 843 
3 1023 1024 838 
3 1025 838 1024 
3 1023 838 839 
3 1004 838 1025 
3 1015 1023 839 
3 1026 843 1013 
3 1026 1027 843 
3 1021 843 1027 
3 846 853 845 
3 846 1028 853 
3 846 847 1028 
3 847 1029 1028 
3 1030 847 848 
3 1030 1029 847 
3 1031 848 1032 
3 1032 848 850 
3 1031 1030 848 
3 852 850 849 
3 852 1033 850 
3 1033 1032 850 
3 1034 851 1035 
3 962 1035 851 
3 852 851 1034 
3 852 1036 1033 
3 852 1037 1036 
3 852 1034 1037 
3 853 1028 978 
3 854 1038 855 
3 1039 854 1040 
3 1039 1038 854 
3 1005 1040 854 
3 1038 1041 855 
3 855 1041 1010 
3 856 880 1042 
3 856 1042 1043 
3 856 1044 859 
3 856 1043 1044 
3 858 860 857 
3 1045 860 858 
3 1045 858 1046 
3 858 1047 1046 
3 858 859 1048 
3 858 1048 1047 
3 1048 859 1044 
3 1045 861 860 
3 1045 862 861 
3 1045 1049 862 
3 1049 866 862 
3 863 1050 1051 
3 863 1051 1052 
3 1053 863 1052 
3 867 1050 863 
3 1053 865 863 
3 1054 869 864 
3 1054 864 865 
3 1053 1054 865 
3 867 866 1055 
3 1049 1056 866 
3 1055 866 1056 
3 867 1055 1050 
3 1057 870 868 
3 1057 868 869 
3 1057 869 1058 
3 1054 1058 869 
3 871 870 1059 
3 1057 1059 870 
3 871 1060 872 
3 871 1061 1060 
3 871 1059 1061 
3 1060 1062 872 
3 872 1062 875 
3 932 930 873 
3 1063 873 1064 
3 1063 932 873 
3 1064 873 874 
3 876 1064 874 
3 876 875 1062 
3 1063 876 1062 
3 1063 1064 876 
3 1042 880 877 
3 1042 877 1065 
3 879 1065 877 
3 1066 878 882 
3 878 1067 879 
3 1066 1067 878 
3 879 1068 1065 
3 879 1069 1070 
3 879 1067 1069 
3 879 1070 1068 
3 1071 882 881 
3 1071 881 890 
3 1072 882 1073 
3 1066 882 1072 
3 1071 1073 882 
3 883 1074 886 
3 883 884 1075 
3 883 1075 1074 
3 884 1076 1077 
3 1078 884 1077 
3 1078 1075 884 
3 1079 1076 884 
3 1079 884 885 
3 1079 885 900 
3 1080 886 1074 
3 1081 886 1080 
3 1081 888 886 
3 887 1082 889 
3 887 888 1083 
3 1081 887 1083 
3 1081 1082 887 
3 1081 1083 888 
3 889 1082 1084 
3 890 889 1084 
3 1071 890 1084 
3 892 1085 1086 
3 892 893 1085 
3 1087 892 1086 
3 1087 894 892 
3 1088 893 899 
3 1088 1085 893 
3 1087 902 894 
3 897 1089 898 
3 897 1090 1089 
3 897 975 1090 
3 899 898 1091 
3 898 1089 1091 
3 899 1091 1092 
3 1088 899 1093 
3 899 1092 1093 
3 1094 1079 900 
3 901 902 900 
3 1094 900 902 
3 1087 1095 902 
3 1095 1096 902 
3 1094 902 1096 
3 913 910 903 
3 904 908 907 
3 904 907 941 
3 904 905 906 
3 904 941 905 
3 905 907 1097 
3 905 1097 906 
3 941 907 906 
3 942 906 1097 
3 942 941 906 
3 908 1098 907 
3 942 907 1098 
3 942 1097 907 
3 908 1099 1098 
3 908 909 1099 
3 1100 909 911 
3 1100 1099 909 
3 913 1101 910 
3 1102 910 1101 
3 1102 911 910 
3 1102 1100 911 
3 914 1103 912 
3 912 1103 1104 
3 912 1101 913 
3 912 1105 1101 
3 912 1106 1105 
3 912 1104 1106 
3 914 915 1103 
3 1107 1103 915 
3 1107 915 1108 
3 915 916 1108 
3 918 1108 916 
3 918 917 1109 
3 917 929 1109 
3 918 1110 1108 
3 918 1109 1111 
3 918 1111 1110 
3 1112 922 919 
3 920 1113 919 
3 1112 919 1113 
3 1114 1115 920 
3 921 1114 920 
3 920 1115 1113 
3 921 1116 1114 
3 921 931 1117 
3 921 1117 1116 
3 1118 923 922 
3 1112 1119 922 
3 922 1119 1120 
3 1118 922 1120 
3 923 1121 924 
3 1118 1121 923 
3 1122 924 1121 
3 1122 925 924 
3 1122 1123 925 
3 926 925 1123 
3 926 1123 1124 
3 926 1124 1125 
3 927 926 1125 
3 927 1126 928 
3 927 1125 1127 
3 927 1127 1128 
3 927 1128 1126 
3 1109 928 1126 
3 1109 929 928 
3 931 932 1117 
3 1063 1117 932 
3 1129 933 944 
3 935 933 1130 
3 1129 1130 933 
3 935 938 934 
3 935 1131 938 
3 935 1130 1131 
3 1132 936 1133 
3 936 1134 1133 
3 1132 939 936 
3 936 937 1134 
3 938 1135 937 
3 1134 937 1135 
3 938 1131 1135 
3 945 940 939 
3 1132 945 939 
3 942 1098 1136 
3 942 1136 943 
3 1136 1137 943 
3 1138 943 1137 
3 1139 943 1138 
3 944 943 1139 
3 1140 944 1141 
3 1141 944 1139 
3 1140 1129 944 
3 971 945 1132 
3 973 948 947 
3 973 949 948 
3 973 1142 949 
3 949 1142 950 
3 974 1143 950 
3 954 950 1143 
3 974 950 1142 
3 955 1014 951 
3 953 954 1144 
3 953 1145 955 
3 953 1146 1145 
3 953 1144 1146 
3 1147 954 1143 
3 1147 1144 954 
3 1145 1148 955 
3 955 1148 1014 
3 1011 956 1007 
3 1011 957 956 
3 1149 958 957 
3 1011 1149 957 
3 1011 958 1149 
3 1011 1010 958 
3 958 1010 959 
3 960 959 1041 
3 1041 959 1010 
3 1150 961 960 
3 1151 960 1041 
3 1150 960 1151 
3 972 961 1150 
3 1152 962 964 
3 1152 1035 962 
3 964 963 1153 
3 965 1153 963 
3 964 1154 1155 
3 964 1153 1154 
3 1152 964 1155 
3 967 1153 965 
3 1156 967 966 
3 1156 966 968 
3 967 1157 1158 
3 1154 967 1158 
3 967 1159 1157 
3 1154 1153 967 
3 1156 1159 967 
3 1156 968 1160 
3 968 1161 1160 
3 968 1162 1161 
3 968 969 1162 
3 1161 1162 969 
3 1163 1161 969 
3 1163 969 1164 
3 970 1164 969 
3 1163 970 1165 
3 1163 1164 970 
3 971 1165 970 
3 971 1132 1165 
3 972 1166 1147 
3 972 1150 1166 
3 972 1147 974 
3 973 974 1142 
3 1147 1143 974 
3 1167 975 976 
3 1167 1168 975 
3 975 1169 1090 
3 1170 1171 975 
3 975 1171 1169 
3 1170 975 1168 
3 1167 976 995 
3 1172 1001 977 
3 1172 977 988 
3 1028 980 978 
3 1173 982 979 
3 1174 1173 979 
3 1174 979 981 
3 1028 1029 980 
3 1029 981 980 
3 1029 1175 981 
3 1174 981 1175 
3 1176 982 1173 
3 1176 983 982 
3 1177 984 983 
3 1176 1177 983 
3 984 1178 985 
3 1177 1178 984 
3 1178 986 985 
3 986 1179 987 
3 1178 1180 986 
3 986 1180 1179 
3 989 987 1179 
3 1172 988 1181 
3 989 1182 988 
3 1183 988 1182 
3 1183 1181 988 
3 989 1184 1182 
3 989 1179 1184 
3 991 990 1185 
3 1186 1185 990 
3 1186 990 1003 
3 991 1185 1187 
3 991 1187 1188 
3 991 1188 1189 
3 992 991 1189 
3 992 1189 1190 
3 992 1190 993 
3 1190 1000 993 
3 994 1191 996 
3 994 1192 1168 
3 994 997 1192 
3 994 1168 1191 
3 1191 1167 995 
3 1191 995 996 
3 1192 997 999 
3 998 1193 999 
3 1194 998 1000 
3 1194 1193 998 
3 1195 1192 999 
3 1195 999 1193 
3 1190 1196 1000 
3 1194 1000 1196 
3 1197 1002 1001 
3 1172 1197 1001 
3 1197 1003 1002 
3 1186 1003 1198 
3 1197 1198 1003 
3 1199 1004 1025 
3 1005 1004 1199 
3 1005 1199 1040 
3 1006 1008 1009 
3 1012 1019 1013 
3 1019 1200 1013 
3 1026 1013 1201 
3 1013 1200 1201 
3 1014 1148 1017 
3 1015 1016 1023 
3 1018 1023 1016 
3 1148 1202 1017 
3 1203 1017 1204 
3 1205 1204 1017 
3 1018 1017 1203 
3 1205 1017 1202 
3 1018 1203 1206 
3 1018 1206 1023 
3 1019 1207 1200 
3 1208 1019 1209 
3 1019 1020 1209 
3 1208 1207 1019 
3 1210 1020 1211 
3 1020 1022 1211 
3 1209 1020 1210 
3 1021 1027 1022 
3 1211 1022 1027 
3 1212 1024 1023 
3 1212 1023 1206 
3 1024 1213 1214 
3 1025 1024 1214 
3 1212 1213 1024 
3 1199 1025 1214 
3 1026 1215 1211 
3 1026 1216 1215 
3 1026 1211 1027 
3 1026 1201 1216 
3 1030 1175 1029 
3 1031 1217 1030 
3 1030 1217 1175 
3 1031 1032 1218 
3 1031 1218 1219 
3 1031 1219 1217 
3 1218 1032 1033 
3 1033 1036 1220 
3 1218 1033 1220 
3 1221 1034 1035 
3 1221 1222 1034 
3 1222 1037 1034 
3 1221 1035 1152 
3 1223 1036 1037 
3 1223 1220 1036 
3 1222 1224 1037 
3 1223 1037 1224 
3 1039 1225 1038 
3 1225 1226 1038 
3 1151 1038 1226 
3 1151 1041 1038 
3 1039 1040 1227 
3 1039 1228 1229 
3 1039 1229 1225 
3 1039 1227 1228 
3 1199 1214 1040 
3 1040 1214 1227 
3 1042 1230 1231 
3 1042 1231 1043 
3 1042 1065 1230 
3 1043 1231 1232 
3 1043 1232 1044 
3 1048 1044 1232 
3 1045 1046 1049 
3 1046 1056 1049 
3 1046 1048 1232 
3 1046 1232 1056 
3 1046 1047 1048 
3 1233 1051 1050 
3 1055 1233 1050 
3 1234 1051 1235 
3 1235 1051 1233 
3 1234 1052 1051 
3 1236 1237 1052 
3 1053 1052 1237 
3 1238 1236 1052 
3 1234 1238 1052 
3 1053 1239 1240 
3 1053 1240 1054 
3 1053 1237 1239 
3 1054 1240 1241 
3 1054 1241 1058 
3 1055 1242 1233 
3 1055 1056 1232 
3 1055 1232 1242 
3 1057 1243 1244 
3 1057 1244 1059 
3 1245 1057 1058 
3 1245 1243 1057 
3 1246 1245 1058 
3 1246 1058 1241 
3 1247 1059 1244 
3 1061 1059 1247 
3 1116 1062 1060 
3 1248 1116 1060 
3 1061 1248 1060 
3 1061 1249 1248 
3 1061 1250 1249 
3 1061 1247 1250 
3 1116 1117 1062 
3 1063 1062 1117 
3 1251 1252 1065 
3 1230 1065 1252 
3 1251 1065 1068 
3 1066 1253 1067 
3 1066 1254 1253 
3 1066 1072 1254 
3 1253 1069 1067 
3 1251 1068 1255 
3 1070 1255 1068 
3 1256 1070 1069 
3 1256 1069 1257 
3 1253 1257 1069 
3 1258 1259 1070 
3 1070 1259 1255 
3 1258 1070 1256 
3 1071 1084 1260 
3 1071 1260 1261 
3 1262 1071 1261 
3 1071 1263 1073 
3 1262 1263 1071 
3 1072 1073 1264 
3 1072 1264 1265 
3 1072 1265 1254 
3 1264 1073 1263 
3 1075 1080 1074 
3 1075 1266 1080 
3 1078 1266 1075 
3 1267 1077 1076 
3 1268 1076 1269 
3 1267 1076 1268 
3 1079 1270 1076 
3 1269 1076 1270 
3 1267 1078 1077 
3 1267 1271 1078 
3 1078 1271 1272 
3 1078 1272 1266 
3 1079 1273 1270 
3 1094 1273 1079 
3 1081 1080 1274 
3 1274 1080 1266 
3 1081 1274 1082 
3 1275 1082 1274 
3 1275 1084 1082 
3 1275 1276 1084 
3 1277 1260 1084 
3 1276 1277 1084 
3 1278 1086 1085 
3 1088 1278 1085 
3 1278 1279 1086 
3 1087 1086 1279 
3 1087 1279 1280 
3 1087 1280 1281 
3 1087 1281 1095 
3 1088 1282 1278 
3 1088 1093 1282 
3 1283 1089 1090 
3 1091 1089 1284 
3 1285 1284 1089 
3 1285 1089 1283 
3 1283 1090 1169 
3 1286 1092 1091 
3 1286 1091 1284 
3 1093 1092 1287 
3 1286 1287 1092 
3 1282 1093 1288 
3 1288 1093 1289 
3 1093 1290 1289 
3 1093 1287 1290 
3 1094 1291 1273 
3 1094 1292 1291 
3 1094 1096 1292 
3 1095 1281 1293 
3 1095 1294 1295 
3 1095 1293 1294 
3 1095 1295 1296 
3 1095 1296 1292 
3 1095 1292 1096 
3 1099 1297 1098 
3 1298 1098 1297 
3 1136 1098 1298 
3 1100 1297 1099 
3 1299 1100 1102 
3 1300 1301 1100 
3 1299 1302 1100 
3 1100 1301 1297 
3 1100 1302 1303 
3 1300 1100 1303 
3 1102 1101 1105 
3 1304 1102 1105 
3 1299 1102 1304 
3 1103 1305 1104 
3 1107 1305 1103 
3 1306 1104 1305 
3 1306 1106 1104 
3 1306 1105 1106 
3 1304 1105 1306 
3 1307 1305 1107 
3 1307 1107 1308 
3 1107 1108 1308 
3 1308 1108 1110 
3 1309 1109 1310 
3 1109 1126 1311 
3 1310 1109 1311 
3 1309 1111 1109 
3 1308 1110 1111 
3 1309 1308 1111 
3 1112 1312 1119 
3 1112 1313 1312 
3 1112 1113 1313 
3 1115 1313 1113 
3 1114 1314 1115 
3 1114 1116 1315 
3 1114 1315 1314 
3 1115 1314 1316 
3 1115 1316 1313 
3 1116 1317 1315 
3 1248 1317 1116 
3 1318 1121 1118 
3 1318 1118 1319 
3 1319 1118 1120 
3 1120 1119 1320 
3 1312 1320 1119 
3 1319 1120 1320 
3 1318 1321 1121 
3 1122 1121 1321 
3 1322 1124 1122 
3 1322 1122 1321 
3 1122 1124 1123 
3 1322 1125 1124 
3 1323 1125 1322 
3 1323 1127 1125 
3 1128 1311 1126 
3 1323 1324 1127 
3 1127 1324 1128 
3 1310 1128 1324 
3 1310 1311 1128 
3 1140 1130 1129 
3 1140 1131 1130 
3 1325 1135 1131 
3 1326 1325 1131 
3 1140 1326 1131 
3 1132 1133 1165 
3 1327 1165 1133 
3 1328 1327 1133 
3 1328 1133 1134 
3 1329 1134 1135 
3 1329 1328 1134 
3 1329 1135 1330 
3 1325 1330 1135 
3 1136 1298 1137 
3 1331 1137 1298 
3 1331 1138 1137 
3 1331 1332 1138 
3 1332 1139 1138 
3 1332 1141 1139 
3 1140 1141 1333 
3 1140 1333 1334 
3 1140 1334 1335 
3 1140 1335 1336 
3 1140 1336 1337 
3 1140 1337 1326 
3 1141 1338 1339 
3 1332 1340 1141 
3 1141 1340 1338 
3 1141 1339 1341 
3 1141 1341 1333 
3 1147 1342 1144 
3 1144 1343 1344 
3 1144 1344 1345 
3 1144 1346 1146 
3 1347 1144 1342 
3 1347 1343 1144 
3 1144 1345 1346 
3 1145 1348 1349 
3 1145 1349 1350 
3 1145 1350 1148 
3 1145 1146 1348 
3 1351 1348 1146 
3 1344 1146 1346 
3 1344 1343 1146 
3 1351 1146 1343 
3 1147 1166 1342 
3 1352 1148 1350 
3 1352 1202 1148 
3 1150 1151 1353 
3 1150 1353 1166 
3 1353 1151 1354 
3 1151 1226 1354 
3 1152 1155 1355 
3 1152 1355 1356 
3 1221 1152 1356 
3 1154 1355 1155 
3 1154 1357 1355 
3 1154 1158 1357 
3 1156 1358 1159 
3 1156 1160 1358 
3 1158 1157 1359 
3 1360 1361 1157 
3 1360 1157 1159 
3 1361 1362 1157 
3 1157 1362 1359 
3 1357 1158 1361 
3 1361 1158 1359 
3 1358 1360 1159 
3 1358 1160 1363 
3 1160 1364 1363 
3 1160 1161 1364 
3 1163 1364 1161 
3 1163 1365 1364 
3 1163 1165 1365 
3 1365 1165 1327 
3 1366 1166 1367 
3 1353 1367 1166 
3 1366 1342 1166 
3 1191 1168 1167 
3 1170 1168 1192 
3 1283 1169 1368 
3 1169 1171 1369 
3 1169 1369 1368 
3 1170 1370 1171 
3 1170 1371 1370 
3 1170 1372 1371 
3 1170 1192 1372 
3 1171 1370 1373 
3 1171 1373 1369 
3 1172 1181 1374 
3 1172 1375 1197 
3 1172 1374 1375 
3 1176 1173 1376 
3 1174 1376 1173 
3 1377 1174 1175 
3 1377 1378 1174 
3 1174 1378 1379 
3 1174 1379 1376 
3 1377 1175 1217 
3 1176 1380 1177 
3 1176 1376 1380 
3 1177 1381 1178 
3 1380 1381 1177 
3 1382 1178 1381 
3 1382 1180 1178 
3 1180 1184 1179 
3 1180 1383 1184 
3 1382 1383 1180 
3 1384 1181 1385 
3 1183 1385 1181 
3 1386 1374 1181 
3 1384 1386 1181 
3 1387 1388 1182 
3 1387 1182 1389 
3 1184 1389 1182 
3 1183 1182 1388 
3 1390 1183 1388 
3 1390 1385 1183 
3 1184 1383 1389 
3 1391 1187 1185 
3 1391 1185 1186 
3 1391 1186 1392 
3 1186 1198 1392 
3 1393 1187 1391 
3 1394 1188 1187 
3 1394 1187 1393 
3 1394 1189 1188 
3 1394 1190 1189 
3 1190 1395 1196 
3 1394 1395 1190 
3 1195 1396 1192 
3 1192 1396 1372 
3 1397 1193 1194 
3 1397 1195 1193 
3 1397 1194 1398 
3 1194 1395 1398 
3 1194 1196 1395 
3 1397 1396 1195 
3 1375 1198 1197 
3 1399 1198 1400 
3 1375 1400 1198 
3 1198 1401 1392 
3 1399 1401 1198 
3 1201 1200 1207 
3 1402 1201 1207 
3 1403 1201 1402 
3 1403 1404 1201 
3 1216 1201 1404 
3 1205 1202 1405 
3 1202 1352 1406 
3 1407 1202 1406 
3 1408 1405 1202 
3 1407 1408 1202 
3 1203 1204 1409 
3 1203 1410 1206 
3 1203 1409 1410 
3 1205 1409 1204 
3 1405 1409 1205 
3 1212 1206 1410 
3 1208 1402 1207 
3 1411 1208 1209 
3 1208 1412 1402 
3 1208 1411 1412 
3 1209 1210 1404 
3 1411 1209 1413 
3 1209 1404 1413 
3 1210 1211 1216 
3 1210 1414 1404 
3 1210 1216 1414 
3 1216 1211 1215 
3 1213 1212 1415 
3 1416 1415 1212 
3 1212 1410 1416 
3 1417 1214 1213 
3 1418 1417 1213 
3 1419 1418 1213 
3 1415 1419 1213 
3 1417 1227 1214 
3 1216 1404 1414 
3 1219 1420 1217 
3 1421 1217 1420 
3 1377 1217 1421 
3 1422 1218 1423 
3 1422 1219 1218 
3 1218 1220 1423 
3 1422 1420 1219 
3 1223 1424 1220 
3 1423 1220 1424 
3 1221 1425 1222 
3 1221 1426 1425 
3 1221 1356 1426 
3 1222 1427 1224 
3 1222 1425 1428 
3 1222 1428 1427 
3 1223 1224 1429 
3 1430 1424 1223 
3 1430 1223 1429 
3 1429 1224 1431 
3 1431 1224 1427 
3 1432 1225 1229 
3 1433 1225 1432 
3 1433 1226 1225 
3 1433 1354 1226 
3 1228 1227 1417 
3 1418 1229 1228 
3 1418 1228 1417 
3 1434 1435 1229 
3 1432 1229 1435 
3 1418 1419 1229 
3 1434 1229 1419 
3 1231 1230 1436 
3 1230 1252 1436 
3 1231 1242 1232 
3 1231 1436 1242 
3 1235 1233 1437 
3 1233 1242 1437 
3 1234 1235 1438 
3 1234 1439 1440 
3 1234 1440 1238 
3 1234 1441 1439 
3 1234 1438 1441 
3 1235 1437 1438 
3 1236 1239 1237 
3 1238 1442 1236 
3 1443 1236 1442 
3 1443 1239 1236 
3 1238 1444 1445 
3 1238 1445 1442 
3 1238 1440 1446 
3 1238 1446 1444 
3 1447 1240 1239 
3 1443 1447 1239 
3 1241 1240 1447 
3 1246 1241 1448 
3 1448 1241 1447 
3 1436 1437 1242 
3 1245 1244 1243 
3 1247 1244 1449 
3 1245 1449 1244 
3 1246 1450 1245 
3 1245 1450 1449 
3 1246 1451 1450 
3 1246 1448 1451 
3 1452 1247 1449 
3 1452 1250 1247 
3 1248 1453 1317 
3 1248 1249 1453 
3 1453 1249 1454 
3 1455 1454 1249 
3 1452 1455 1249 
3 1452 1249 1250 
3 1251 1456 1252 
3 1251 1457 1456 
3 1251 1255 1457 
3 1436 1252 1456 
3 1253 1265 1257 
3 1253 1254 1265 
3 1458 1457 1255 
3 1458 1255 1259 
3 1258 1256 1459 
3 1460 1459 1256 
3 1460 1256 1461 
3 1256 1257 1461 
3 1257 1462 1461 
3 1257 1265 1462 
3 1258 1463 1259 
3 1258 1459 1464 
3 1258 1464 1463 
3 1465 1458 1259 
3 1465 1259 1463 
3 1260 1466 1467 
3 1261 1260 1467 
3 1277 1466 1260 
3 1262 1261 1468 
3 1261 1467 1277 
3 1261 1277 1469 
3 1261 1469 1468 
3 1262 1470 1471 
3 1262 1471 1264 
3 1262 1264 1263 
3 1262 1468 1470 
3 1264 1462 1265 
3 1264 1471 1462 
3 1272 1274 1266 
3 1267 1268 1472 
3 1267 1472 1271 
3 1268 1269 1473 
3 1474 1268 1473 
3 1474 1472 1268 
3 1475 1269 1476 
3 1475 1473 1269 
3 1273 1269 1270 
3 1273 1477 1269 
3 1478 1269 1477 
3 1478 1476 1269 
3 1472 1479 1271 
3 1480 1271 1479 
3 1272 1271 1480 
3 1275 1274 1272 
3 1275 1272 1481 
3 1482 1481 1272 
3 1272 1480 1483 
3 1482 1272 1483 
3 1273 1484 1477 
3 1273 1485 1484 
3 1273 1296 1485 
3 1273 1291 1296 
3 1275 1481 1276 
3 1482 1276 1481 
3 1482 1486 1276 
3 1276 1486 1487 
3 1276 1488 1489 
3 1276 1489 1469 
3 1276 1469 1490 
3 1276 1490 1491 
3 1276 1491 1277 
3 1276 1487 1488 
3 1277 1491 1469 
3 1277 1492 1466 
3 1277 1467 1492 
3 1278 1493 1279 
3 1282 1494 1278 
3 1278 1495 1493 
3 1278 1494 1496 
3 1278 1496 1495 
3 1279 1493 1497 
3 1498 1279 1497 
3 1498 1280 1279 
3 1498 1281 1280 
3 1498 1293 1281 
3 1282 1288 1494 
3 1285 1283 1499 
3 1500 1499 1283 
3 1500 1283 1368 
3 1285 1501 1284 
3 1501 1286 1284 
3 1502 1285 1499 
3 1502 1503 1285 
3 1285 1503 1504 
3 1285 1504 1501 
3 1505 1287 1286 
3 1505 1286 1506 
3 1501 1506 1286 
3 1505 1290 1287 
3 1507 1494 1288 
3 1288 1289 1508 
3 1507 1288 1508 
3 1508 1289 1290 
3 1509 1508 1290 
3 1505 1510 1290 
3 1510 1509 1290 
3 1296 1291 1292 
3 1498 1511 1293 
3 1294 1293 1511 
3 1294 1512 1295 
3 1294 1513 1514 
3 1294 1515 1513 
3 1294 1511 1515 
3 1294 1514 1516 
3 1294 1516 1512 
3 1517 1295 1512 
3 1296 1295 1517 
3 1296 1517 1518 
3 1296 1518 1485 
3 1298 1297 1519 
3 1301 1519 1297 
3 1331 1298 1519 
3 1299 1304 1520 
3 1299 1521 1302 
3 1299 1520 1522 
3 1299 1522 1521 
3 1300 1521 1301 
3 1300 1302 1521 
3 1523 1300 1303 
3 1523 1302 1300 
3 1301 1303 1302 
3 1523 1301 1302 
3 1301 1524 1519 
3 1523 1524 1301 
3 1521 1303 1301 
3 1523 1303 1521 
3 1525 1304 1306 
3 1525 1520 1304 
3 1307 1526 1305 
3 1526 1527 1305 
3 1306 1305 1527 
3 1528 1306 1527 
3 1528 1525 1306 
3 1307 1529 1526 
3 1307 1530 1529 
3 1307 1308 1530 
3 1530 1308 1531 
3 1309 1531 1308 
3 1309 1310 1532 
3 1309 1532 1531 
3 1533 1310 1324 
3 1532 1310 1533 
3 1534 1312 1535 
3 1535 1312 1313 
3 1534 1320 1312 
3 1535 1313 1316 
3 1536 1316 1314 
3 1537 1536 1314 
3 1537 1314 1315 
3 1537 1315 1538 
3 1538 1315 1539 
3 1315 1317 1539 
3 1535 1316 1536 
3 1453 1539 1317 
3 1318 1540 1321 
3 1318 1541 1540 
3 1318 1542 1541 
3 1318 1319 1542 
3 1319 1320 1542 
3 1534 1543 1320 
3 1543 1542 1320 
3 1322 1321 1540 
3 1323 1322 1544 
3 1322 1545 1544 
3 1322 1546 1545 
3 1322 1540 1546 
3 1323 1544 1547 
3 1323 1548 1324 
3 1323 1547 1549 
3 1323 1549 1548 
3 1548 1533 1324 
3 1550 1330 1325 
3 1550 1325 1551 
3 1325 1552 1551 
3 1326 1552 1325 
3 1326 1553 1552 
3 1326 1554 1555 
3 1326 1555 1553 
3 1326 1337 1554 
3 1556 1365 1327 
3 1556 1327 1328 
3 1329 1556 1328 
3 1329 1557 1556 
3 1329 1330 1557 
3 1330 1558 1559 
3 1330 1559 1557 
3 1550 1558 1330 
3 1331 1519 1524 
3 1331 1524 1560 
3 1331 1560 1332 
3 1332 1561 1340 
3 1332 1560 1561 
3 1333 1341 1562 
3 1333 1563 1334 
3 1333 1562 1563 
3 1563 1335 1334 
3 1563 1564 1335 
3 1564 1336 1335 
3 1565 1337 1336 
3 1564 1566 1336 
3 1565 1336 1566 
3 1565 1554 1337 
3 1567 1339 1338 
3 1340 1568 1338 
3 1567 1338 1568 
3 1569 1341 1339 
3 1570 1569 1339 
3 1567 1570 1339 
3 1571 1340 1561 
3 1340 1572 1568 
3 1571 1572 1340 
3 1569 1562 1341 
3 1347 1342 1366 
3 1347 1345 1343 
3 1351 1343 1345 
3 1348 1344 1346 
3 1351 1344 1348 
3 1351 1345 1344 
3 1347 1346 1345 
3 1573 1348 1346 
3 1347 1573 1346 
3 1347 1574 1573 
3 1347 1575 1574 
3 1347 1366 1575 
3 1349 1348 1576 
3 1573 1576 1348 
3 1577 1349 1576 
3 1578 1349 1577 
3 1579 1350 1349 
3 1578 1579 1349 
3 1352 1350 1579 
3 1580 1352 1581 
3 1581 1352 1582 
3 1582 1352 1579 
3 1406 1352 1580 
3 1433 1583 1353 
3 1433 1353 1354 
3 1353 1583 1584 
3 1353 1584 1575 
3 1353 1575 1367 
3 1355 1357 1585 
3 1355 1585 1586 
3 1356 1355 1586 
3 1356 1586 1587 
3 1588 1356 1587 
3 1588 1426 1356 
3 1357 1589 1585 
3 1590 1362 1357 
3 1357 1362 1589 
3 1357 1361 1591 
3 1590 1357 1591 
3 1358 1592 1360 
3 1358 1363 1592 
3 1590 1361 1359 
3 1590 1359 1362 
3 1360 1586 1361 
3 1360 1592 1593 
3 1360 1593 1586 
3 1590 1589 1361 
3 1361 1589 1362 
3 1586 1591 1361 
3 1592 1363 1594 
3 1364 1595 1363 
3 1595 1594 1363 
3 1365 1596 1364 
3 1364 1596 1595 
3 1556 1596 1365 
3 1366 1367 1575 
3 1597 1368 1369 
3 1500 1368 1597 
3 1598 1597 1369 
3 1599 1369 1373 
3 1598 1369 1599 
3 1600 1370 1371 
3 1601 1373 1370 
3 1600 1601 1370 
3 1602 1603 1371 
3 1602 1371 1604 
3 1604 1371 1372 
3 1600 1371 1603 
3 1604 1372 1396 
3 1599 1373 1601 
3 1605 1374 1386 
3 1375 1374 1606 
3 1605 1606 1374 
3 1607 1400 1375 
3 1607 1375 1606 
3 1376 1379 1608 
3 1380 1376 1608 
3 1377 1421 1378 
3 1421 1609 1378 
3 1610 1378 1609 
3 1610 1379 1378 
3 1611 1608 1379 
3 1612 1611 1379 
3 1612 1379 1610 
3 1380 1613 1381 
3 1380 1608 1613 
3 1614 1381 1613 
3 1382 1381 1614 
3 1382 1615 1383 
3 1382 1614 1615 
3 1616 1389 1383 
3 1616 1383 1615 
3 1384 1385 1617 
3 1384 1618 1619 
3 1384 1619 1386 
3 1384 1617 1618 
3 1620 1385 1621 
3 1390 1621 1385 
3 1617 1385 1622 
3 1622 1385 1620 
3 1605 1386 1619 
3 1390 1388 1387 
3 1623 1624 1387 
3 1387 1389 1616 
3 1623 1387 1616 
3 1390 1387 1624 
3 1390 1625 1621 
3 1390 1624 1625 
3 1393 1391 1626 
3 1391 1392 1626 
3 1626 1392 1401 
3 1627 1393 1628 
3 1627 1394 1393 
3 1393 1629 1628 
3 1393 1626 1629 
3 1394 1630 1398 
3 1394 1398 1395 
3 1627 1630 1394 
3 1604 1396 1631 
3 1631 1396 1632 
3 1397 1632 1396 
3 1397 1633 1632 
3 1397 1398 1633 
3 1630 1634 1398 
3 1632 1398 1634 
3 1632 1633 1398 
3 1399 1400 1635 
3 1399 1636 1637 
3 1399 1635 1636 
3 1399 1637 1401 
3 1607 1635 1400 
3 1626 1401 1637 
3 1402 1638 1639 
3 1403 1402 1639 
3 1402 1412 1638 
3 1640 1403 1639 
3 1640 1641 1403 
3 1403 1641 1642 
3 1403 1642 1643 
3 1403 1644 1404 
3 1403 1643 1644 
3 1644 1645 1404 
3 1404 1645 1413 
3 1405 1410 1409 
3 1410 1405 1408 
3 1646 1406 1580 
3 1406 1646 1407 
3 1407 1647 1416 
3 1648 1647 1407 
3 1646 1648 1407 
3 1408 1407 1416 
3 1416 1410 1408 
3 1412 1411 1413 
3 1638 1412 1413 
3 1649 1413 1645 
3 1649 1640 1413 
3 1640 1638 1413 
3 1415 1434 1419 
3 1415 1647 1434 
3 1416 1647 1415 
3 1650 1420 1651 
3 1650 1421 1420 
3 1422 1651 1420 
3 1421 1652 1609 
3 1650 1652 1421 
3 1422 1423 1653 
3 1654 1422 1653 
3 1654 1651 1422 
3 1653 1423 1424 
3 1430 1653 1424 
3 1655 1425 1426 
3 1655 1428 1425 
3 1588 1655 1426 
3 1431 1427 1656 
3 1657 1427 1428 
3 1658 1427 1657 
3 1658 1656 1427 
3 1655 1657 1428 
3 1429 1431 1659 
3 1430 1429 1659 
3 1430 1660 1653 
3 1430 1659 1660 
3 1431 1661 1659 
3 1431 1662 1661 
3 1431 1663 1662 
3 1431 1656 1663 
3 1432 1435 1664 
3 1432 1664 1583 
3 1433 1432 1583 
3 1434 1665 1435 
3 1666 1665 1434 
3 1666 1434 1647 
3 1664 1435 1665 
3 1441 1438 1436 
3 1441 1436 1456 
3 1436 1438 1437 
3 1667 1440 1439 
3 1667 1439 1668 
3 1669 1668 1439 
3 1441 1669 1439 
3 1446 1440 1667 
3 1441 1670 1669 
3 1441 1456 1670 
3 1445 1443 1442 
3 1445 1671 1443 
3 1443 1671 1448 
3 1443 1448 1447 
3 1445 1444 1672 
3 1444 1673 1672 
3 1674 1673 1444 
3 1446 1674 1444 
3 1445 1672 1671 
3 1446 1667 1675 
3 1446 1675 1674 
3 1448 1671 1676 
3 1448 1676 1451 
3 1677 1449 1450 
3 1452 1449 1677 
3 1677 1450 1451 
3 1678 1451 1676 
3 1678 1677 1451 
3 1452 1677 1679 
3 1452 1679 1455 
3 1453 1680 1539 
3 1453 1681 1682 
3 1453 1682 1680 
3 1453 1454 1681 
3 1683 1681 1454 
3 1683 1454 1455 
3 1683 1455 1684 
3 1455 1679 1684 
3 1456 1685 1670 
3 1457 1685 1456 
3 1458 1685 1457 
3 1465 1685 1458 
3 1686 1464 1459 
3 1460 1686 1459 
3 1460 1687 1686 
3 1460 1688 1687 
3 1460 1689 1688 
3 1460 1461 1689 
3 1689 1461 1462 
3 1689 1462 1471 
3 1690 1465 1463 
3 1690 1463 1464 
3 1691 1464 1686 
3 1691 1690 1464 
3 1690 1692 1465 
3 1465 1692 1685 
3 1467 1466 1492 
3 1470 1468 1693 
3 1694 1693 1468 
3 1694 1468 1469 
3 1695 1696 1469 
3 1694 1469 1696 
3 1695 1469 1489 
3 1469 1697 1490 
3 1469 1491 1697 
3 1471 1470 1698 
3 1698 1470 1699 
3 1470 1693 1699 
3 1471 1698 1700 
3 1471 1700 1701 
3 1689 1471 1701 
3 1474 1702 1472 
3 1703 1479 1472 
3 1703 1472 1702 
3 1475 1704 1473 
3 1474 1473 1704 
3 1474 1704 1705 
3 1474 1705 1706 
3 1474 1706 1707 
3 1474 1707 1702 
3 1475 1476 1708 
3 1475 1708 1704 
3 1709 1704 1476 
3 1476 1704 1708 
3 1478 1710 1476 
3 1709 1476 1711 
3 1710 1711 1476 
3 1478 1477 1484 
3 1478 1484 1710 
3 1703 1712 1479 
3 1712 1480 1479 
3 1713 1483 1480 
3 1712 1713 1480 
3 1714 1486 1482 
3 1714 1482 1715 
3 1482 1483 1715 
3 1715 1483 1713 
3 1716 1710 1484 
3 1716 1484 1485 
3 1716 1485 1717 
3 1518 1717 1485 
3 1714 1697 1486 
3 1695 1486 1697 
3 1695 1487 1486 
3 1697 1488 1487 
3 1695 1489 1487 
3 1697 1487 1489 
3 1488 1490 1489 
3 1718 1488 1697 
3 1491 1490 1488 
3 1491 1488 1718 
3 1697 1489 1490 
3 1695 1491 1718 
3 1695 1697 1491 
3 1719 1497 1493 
3 1495 1720 1493 
3 1721 1719 1493 
3 1721 1493 1722 
3 1722 1493 1720 
3 1723 1496 1494 
3 1723 1494 1507 
3 1724 1495 1496 
3 1724 1725 1495 
3 1721 1726 1495 
3 1726 1720 1495 
3 1721 1495 1725 
3 1723 1724 1496 
3 1719 1727 1497 
3 1727 1511 1497 
3 1498 1497 1511 
3 1502 1499 1500 
3 1502 1500 1728 
3 1500 1597 1729 
3 1728 1500 1729 
3 1730 1501 1504 
3 1730 1506 1501 
3 1502 1731 1732 
3 1502 1733 1731 
3 1502 1732 1734 
3 1502 1735 1733 
3 1502 1734 1503 
3 1502 1736 1735 
3 1502 1728 1736 
3 1503 1734 1737 
3 1504 1503 1737 
3 1504 1737 1738 
3 1730 1504 1738 
3 1505 1739 1510 
3 1505 1506 1739 
3 1730 1740 1506 
3 1740 1739 1506 
3 1741 1507 1508 
3 1741 1742 1507 
3 1723 1507 1742 
3 1741 1508 1509 
3 1741 1509 1743 
3 1743 1509 1510 
3 1739 1744 1510 
3 1743 1510 1744 
3 1511 1745 1746 
3 1727 1745 1511 
3 1511 1746 1515 
3 1747 1512 1516 
3 1517 1512 1747 
3 1748 1514 1513 
3 1513 1515 1749 
3 1513 1749 1750 
3 1748 1513 1750 
3 1751 1514 1748 
3 1751 1516 1514 
3 1752 1515 1746 
3 1752 1749 1515 
3 1751 1753 1516 
3 1747 1516 1753 
3 1754 1517 1747 
3 1754 1518 1517 
3 1754 1717 1518 
3 1755 1522 1520 
3 1525 1755 1520 
3 1521 1522 1756 
3 1523 1521 1757 
3 1521 1756 1757 
3 1755 1758 1522 
3 1759 1522 1758 
3 1522 1760 1756 
3 1522 1761 1760 
3 1759 1761 1522 
3 1762 1524 1523 
3 1762 1523 1757 
3 1762 1560 1524 
3 1528 1763 1525 
3 1764 1525 1763 
3 1764 1755 1525 
3 1526 1765 1527 
3 1529 1765 1526 
3 1528 1527 1766 
3 1766 1527 1765 
3 1528 1766 1767 
3 1528 1767 1763 
3 1768 1765 1529 
3 1768 1529 1769 
3 1530 1769 1529 
3 1530 1770 1769 
3 1530 1771 1770 
3 1530 1772 1771 
3 1530 1531 1772 
3 1772 1531 1532 
3 1532 1533 1773 
3 1772 1532 1774 
3 1532 1773 1775 
3 1532 1775 1774 
3 1776 1533 1548 
3 1776 1773 1533 
3 1777 1534 1535 
3 1777 1543 1534 
3 1777 1535 1778 
3 1779 1778 1535 
3 1779 1535 1780 
3 1535 1781 1780 
3 1535 1536 1781 
3 1782 1781 1536 
3 1783 1536 1537 
3 1783 1782 1536 
3 1783 1537 1784 
3 1537 1538 1784 
3 1680 1785 1538 
3 1538 1785 1784 
3 1680 1538 1539 
3 1786 1540 1787 
3 1540 1543 1787 
3 1786 1546 1540 
3 1540 1541 1543 
3 1543 1541 1542 
3 1777 1787 1543 
3 1777 1544 1545 
3 1788 1789 1544 
3 1790 1788 1544 
3 1790 1544 1791 
3 1777 1791 1544 
3 1544 1789 1547 
3 1786 1777 1545 
3 1786 1545 1546 
3 1789 1549 1547 
3 1776 1548 1792 
3 1548 1793 1792 
3 1548 1549 1793 
3 1789 1794 1549 
3 1549 1794 1795 
3 1549 1795 1793 
3 1550 1796 1558 
3 1550 1797 1798 
3 1550 1799 1797 
3 1550 1551 1799 
3 1550 1798 1796 
3 1800 1551 1552 
3 1800 1799 1551 
3 1800 1552 1801 
3 1552 1553 1801 
3 1802 1801 1553 
3 1802 1553 1555 
3 1565 1555 1554 
3 1565 1803 1555 
3 1804 1802 1555 
3 1804 1555 1803 
3 1556 1805 1596 
3 1556 1806 1805 
3 1556 1557 1806 
3 1807 1806 1557 
3 1807 1557 1808 
3 1557 1559 1808 
3 1558 1808 1559 
3 1796 1808 1558 
3 1762 1809 1560 
3 1561 1560 1809 
3 1561 1809 1810 
3 1571 1561 1810 
3 1569 1811 1562 
3 1563 1562 1812 
3 1812 1562 1811 
3 1563 1813 1814 
3 1563 1812 1813 
3 1563 1814 1564 
3 1814 1815 1564 
3 1564 1815 1566 
3 1565 1816 1803 
3 1565 1566 1816 
3 1817 1816 1566 
3 1817 1566 1815 
3 1567 1818 1570 
3 1567 1819 1818 
3 1567 1568 1819 
3 1572 1820 1568 
3 1568 1821 1819 
3 1568 1820 1821 
3 1569 1822 1811 
3 1570 1822 1569 
3 1570 1823 1822 
3 1570 1824 1823 
3 1570 1818 1824 
3 1571 1825 1572 
3 1571 1810 1826 
3 1571 1826 1825 
3 1572 1825 1820 
3 1573 1577 1576 
3 1827 1577 1573 
3 1827 1573 1574 
3 1828 1827 1574 
3 1828 1574 1829 
3 1575 1829 1574 
3 1584 1829 1575 
3 1827 1830 1577 
3 1578 1577 1830 
3 1578 1830 1831 
3 1578 1831 1832 
3 1578 1832 1579 
3 1579 1832 1582 
3 1580 1581 1833 
3 1580 1834 1646 
3 1834 1580 1833 
3 1835 1581 1582 
3 1833 1581 1835 
3 1582 1832 1835 
3 1836 1583 1837 
3 1664 1837 1583 
3 1836 1584 1583 
3 1828 1584 1836 
3 1828 1829 1584 
3 1590 1585 1589 
3 1590 1591 1585 
3 1586 1585 1591 
3 1593 1587 1586 
3 1593 1838 1587 
3 1839 1587 1838 
3 1839 1840 1587 
3 1588 1587 1840 
3 1588 1840 1841 
3 1588 1842 1655 
3 1588 1843 1842 
3 1588 1841 1843 
3 1592 1594 1844 
3 1592 1844 1593 
3 1844 1845 1593 
3 1593 1845 1838 
3 1846 1594 1595 
3 1846 1844 1594 
3 1846 1595 1847 
3 1848 1847 1595 
3 1848 1595 1596 
3 1848 1596 1805 
3 1598 1849 1597 
3 1597 1849 1729 
3 1598 1850 1851 
3 1598 1599 1850 
3 1598 1851 1852 
3 1598 1852 1849 
3 1599 1853 1850 
3 1599 1601 1853 
3 1600 1603 1854 
3 1600 1854 1601 
3 1601 1854 1853 
3 1602 1855 1603 
3 1856 1602 1604 
3 1857 1855 1602 
3 1857 1602 1858 
3 1856 1858 1602 
3 1855 1854 1603 
3 1856 1604 1631 
3 1605 1607 1606 
3 1605 1619 1859 
3 1605 1860 1607 
3 1605 1861 1860 
3 1605 1859 1861 
3 1607 1862 1863 
3 1607 1863 1635 
3 1864 1862 1607 
3 1864 1607 1860 
3 1611 1613 1608 
3 1610 1609 1652 
3 1610 1865 1866 
3 1610 1652 1865 
3 1612 1610 1866 
3 1867 1613 1611 
3 1612 1867 1611 
3 1612 1868 1869 
3 1612 1869 1867 
3 1612 1866 1868 
3 1867 1870 1613 
3 1614 1613 1870 
3 1614 1871 1615 
3 1614 1870 1871 
3 1616 1615 1872 
3 1615 1871 1872 
3 1616 1872 1873 
3 1623 1616 1873 
3 1617 1622 1618 
3 1622 1874 1618 
3 1619 1618 1875 
3 1618 1876 1875 
3 1874 1877 1618 
3 1618 1877 1876 
3 1619 1878 1859 
3 1619 1875 1878 
3 1879 1620 1621 
3 1880 1620 1879 
3 1880 1881 1620 
3 1622 1620 1882 
3 1620 1881 1882 
3 1879 1621 1625 
3 1622 1882 1874 
3 1883 1624 1623 
3 1883 1623 1884 
3 1885 1884 1623 
3 1885 1623 1873 
3 1883 1886 1624 
3 1887 1625 1624 
3 1886 1887 1624 
3 1887 1879 1625 
3 1626 1888 1629 
3 1626 1637 1888 
3 1627 1628 1629 
3 1627 1889 1890 
3 1627 1629 1889 
3 1627 1890 1630 
3 1891 1889 1629 
3 1891 1629 1888 
3 1892 1634 1630 
3 1630 1890 1893 
3 1892 1630 1893 
3 1894 1631 1632 
3 1856 1631 1894 
3 1894 1632 1895 
3 1632 1634 1895 
3 1892 1896 1634 
3 1634 1896 1895 
3 1636 1635 1897 
3 1863 1897 1635 
3 1636 1898 1637 
3 1899 1898 1636 
3 1899 1636 1897 
3 1898 1900 1637 
3 1888 1637 1900 
3 1640 1639 1638 
3 1640 1649 1641 
3 1642 1641 1649 
3 1643 1642 1901 
3 1902 1642 1649 
3 1902 1901 1642 
3 1903 1643 1901 
3 1903 1904 1643 
3 1905 1643 1904 
3 1905 1906 1643 
3 1644 1643 1906 
3 1644 1907 1908 
3 1644 1909 1907 
3 1644 1906 1909 
3 1644 1910 1645 
3 1644 1908 1910 
3 1645 1910 1911 
3 1911 1649 1645 
3 1834 1912 1646 
3 1646 1912 1913 
3 1646 1913 1648 
3 1914 1647 1915 
3 1666 1647 1914 
3 1647 1648 1915 
3 1913 1915 1648 
3 1902 1649 1911 
3 1650 1651 1916 
3 1650 1916 1917 
3 1918 1650 1917 
3 1918 1865 1650 
3 1650 1865 1652 
3 1651 1919 1916 
3 1654 1919 1651 
3 1654 1653 1660 
3 1654 1920 1919 
3 1654 1660 1920 
3 1655 1921 1657 
3 1842 1921 1655 
3 1922 1663 1656 
3 1922 1656 1658 
3 1657 1921 1923 
3 1658 1657 1924 
3 1924 1657 1923 
3 1658 1924 1925 
3 1922 1658 1925 
3 1660 1659 1926 
3 1926 1659 1661 
3 1660 1927 1920 
3 1660 1926 1927 
3 1926 1661 1928 
3 1929 1661 1662 
3 1929 1928 1661 
3 1930 1662 1663 
3 1929 1662 1930 
3 1922 1930 1663 
3 1931 1664 1665 
3 1931 1932 1664 
3 1664 1932 1837 
3 1666 1931 1665 
3 1666 1933 1934 
3 1666 1914 1933 
3 1666 1934 1935 
3 1666 1935 1931 
3 1936 1675 1667 
3 1936 1667 1668 
3 1937 1938 1668 
3 1936 1668 1938 
3 1937 1668 1669 
3 1937 1669 1939 
3 1669 1692 1939 
3 1669 1670 1692 
3 1692 1670 1685 
3 1676 1671 1940 
3 1941 1940 1671 
3 1941 1671 1672 
3 1941 1672 1942 
3 1673 1942 1672 
3 1943 1944 1673 
3 1673 1944 1942 
3 1674 1943 1673 
3 1674 1675 1943 
3 1936 1943 1675 
3 1945 1676 1940 
3 1945 1678 1676 
3 1946 1677 1678 
3 1946 1679 1677 
3 1946 1678 1947 
3 1945 1947 1678 
3 1946 1684 1679 
3 1948 1785 1680 
3 1948 1680 1682 
3 1949 1682 1681 
3 1950 1951 1681 
3 1949 1681 1951 
3 1683 1950 1681 
3 1949 1952 1682 
3 1948 1682 1952 
3 1683 1953 1950 
3 1683 1684 1953 
3 1953 1684 1946 
3 1691 1686 1954 
3 1954 1686 1687 
3 1954 1687 1955 
3 1955 1687 1688 
3 1956 1955 1688 
3 1956 1688 1689 
3 1956 1689 1701 
3 1691 1957 1690 
3 1690 1957 1692 
3 1691 1958 1957 
3 1691 1959 1960 
3 1691 1960 1958 
3 1691 1954 1959 
3 1939 1692 1957 
3 1961 1962 1693 
3 1962 1699 1693 
3 1961 1693 1694 
3 1961 1694 1696 
3 1714 1696 1695 
3 1714 1695 1718 
3 1961 1696 1963 
3 1714 1963 1696 
3 1714 1718 1697 
3 1964 1700 1698 
3 1964 1698 1965 
3 1965 1698 1699 
3 1965 1699 1966 
3 1962 1966 1699 
3 1964 1967 1700 
3 1967 1956 1700 
3 1956 1701 1700 
3 1707 1968 1702 
3 1969 1702 1968 
3 1703 1702 1969 
3 1703 1969 1712 
3 1709 1705 1704 
3 1709 1970 1705 
3 1705 1970 1971 
3 1705 1971 1706 
3 1971 1972 1706 
3 1707 1706 1972 
3 1707 1972 1973 
3 1707 1973 1968 
3 1709 1711 1970 
3 1716 1974 1710 
3 1710 1974 1711 
3 1711 1975 1970 
3 1711 1974 1975 
3 1712 1976 1713 
3 1712 1969 1977 
3 1712 1977 1976 
3 1976 1715 1713 
3 1714 1978 1963 
3 1714 1715 1978 
3 1976 1979 1715 
3 1715 1979 1978 
3 1716 1980 1981 
3 1716 1982 1980 
3 1716 1717 1982 
3 1716 1983 1984 
3 1716 1981 1985 
3 1716 1985 1983 
3 1716 1984 1974 
3 1754 1986 1717 
3 1717 1986 1987 
3 1717 1987 1982 
3 1719 1722 1727 
3 1719 1988 1722 
3 1719 1725 1988 
3 1721 1725 1719 
3 1989 1720 1726 
3 1989 1752 1720 
3 1722 1720 1990 
3 1991 1990 1720 
3 1746 1991 1720 
3 1752 1746 1720 
3 1721 1722 1726 
3 1727 1722 1990 
3 1989 1726 1722 
3 1989 1722 1988 
3 1723 1992 1724 
3 1723 1993 1992 
3 1723 1742 1993 
3 1724 1994 1995 
3 1724 1992 1994 
3 1724 1995 1725 
3 1988 1725 1995 
3 1727 1996 1745 
3 1727 1990 1996 
3 1728 1729 1997 
3 1728 1998 1736 
3 1728 1999 1998 
3 1728 1997 1999 
3 1852 1729 1849 
3 1852 2000 1729 
3 1729 2000 1997 
3 1730 1738 1740 
3 2001 1732 1731 
3 2002 1731 1733 
3 2002 2001 1731 
3 2003 1732 2004 
3 2003 2005 1732 
3 1732 2006 1734 
3 2004 1732 2001 
3 1732 2005 2006 
3 1733 1735 1736 
3 2007 1733 1736 
3 2002 1733 2008 
3 2007 2008 1733 
3 1734 1738 1737 
3 1734 2006 1738 
3 1998 2007 1736 
3 1740 1738 2009 
3 1738 2005 2009 
3 1738 2006 2005 
3 1740 2010 1739 
3 2010 2011 1739 
3 1739 2011 1744 
3 1740 2009 2012 
3 1740 2012 2013 
3 1740 2013 2010 
3 1741 2014 1742 
3 1741 2015 2014 
3 1741 1743 2015 
3 2016 1742 2017 
3 1742 2014 2017 
3 2016 1993 1742 
3 1743 2018 2015 
3 1743 2011 2018 
3 1743 1744 2011 
3 1745 1996 1746 
3 1746 1990 1991 
3 1746 1996 1990 
3 1754 1747 1753 
3 1751 1748 2019 
3 1748 1750 2020 
3 1748 2020 2019 
3 2021 1749 1752 
3 2021 2022 1749 
3 2023 1749 2022 
3 2023 1750 1749 
3 2020 1750 2024 
3 2023 2024 1750 
3 1751 2019 2025 
3 1751 2026 1753 
3 1751 2025 2026 
3 2021 1752 2027 
3 1752 2028 2027 
3 1989 2028 1752 
3 2029 1754 1753 
3 2029 1753 2026 
3 2029 2030 1754 
3 1754 2030 1986 
3 2031 1758 1755 
3 1764 2031 1755 
3 1759 1757 1756 
3 1758 1761 1756 
3 1759 1756 1761 
3 1758 1756 1760 
3 1759 1760 1757 
3 2032 1757 1760 
3 1762 1757 2032 
3 1759 1758 1760 
3 1758 2033 1761 
3 2031 2033 1758 
3 2032 1760 2033 
3 2033 1760 1761 
3 1762 2032 2034 
3 1762 1810 1809 
3 1762 2035 1810 
3 1762 2034 2035 
3 1764 1763 2036 
3 1767 2036 1763 
3 1764 2037 2031 
3 1764 2038 2037 
3 1764 2036 2038 
3 1768 1766 1765 
3 1768 2039 1766 
3 1767 1766 2039 
3 1767 2039 2040 
3 2041 1767 2040 
3 2041 2042 1767 
3 1767 2042 2036 
3 1768 1769 2043 
3 2044 1768 2045 
3 1768 2043 2045 
3 2044 2039 1768 
3 1769 2046 2043 
3 1769 2047 2046 
3 1770 2047 1769 
3 1771 2048 1770 
3 1770 2048 2047 
3 1771 2049 2048 
3 1771 2050 2049 
