NORM_ASCII
1973 3942
   0.0089538    0.0032570   -0.0025729   -0.0250587    0.9790556   -0.2020452
   0.0079927    0.0032255   -0.0025378   -0.0213513    0.9664210   -0.2560752
   0.0077119    0.0033125   -0.0020152    0.0213737    0.9939785   -0.1074708
   0.0330637    0.0049423   -0.0046803   -0.1301272    0.9476381   -0.2916315
   0.0334980    0.0051086   -0.0043063   -0.1326459    0.9897929    0.0521074
   0.0351865    0.0049135   -0.0035480    0.0106028    0.8753283    0.4834128
   0.0367106    0.0046993   -0.0033381    0.0167296    0.8020244    0.5970570
   0.0377042    0.0037513   -0.0026295    0.0902059    0.5485877    0.8312126
   0.0376060    0.0044127   -0.0031346    0.1066926    0.6932287    0.7127767
   0.0347289    0.0051566   -0.0040423   -0.0000752    0.9758950    0.2182406
   0.0368082    0.0004173   -0.0022001    0.0799572   -0.7593350    0.6457687
   0.0376144    0.0009091   -0.0019269   -0.0438446   -0.2272898    0.9728397
   0.0372620    0.0006229   -0.0020551    0.0130271   -0.6089346    0.7931135
   0.0381488    0.0012391   -0.0019186   -0.1282347    0.0863834    0.9879746
   0.0393392    0.0019927   -0.0018035   -0.0988821    0.2473586    0.9638652
   0.0384386    0.0031247   -0.0023026   -0.1149793    0.3024078    0.9462184
   0.0377699    0.0033939   -0.0024534    0.0057623    0.3719513    0.9282343
   0.0332779    0.0048576   -0.0050494   -0.1505606    0.8929838   -0.4241597
   0.0341115    0.0042001   -0.0060123   -0.0868681    0.6405766   -0.7629650
   0.0341281    0.0049345   -0.0051954   -0.1021554    0.8568963   -0.5052653
   0.0340262    0.0046033   -0.0056230   -0.0968293    0.7419844   -0.6633877
   0.0349963    0.0039591   -0.0062447   -0.0301228    0.5816223   -0.8129011
   0.0354196    0.0034228   -0.0065919    0.0094453    0.5118158   -0.8590433
   0.0359049    0.0015814   -0.0068143    0.0220677   -0.4955624   -0.8682920
   0.0365728    0.0014444   -0.0067021    0.0902031   -0.5793910   -0.8100429
   0.0366660    0.0011529   -0.0063734    0.0785292   -0.8163661   -0.5721709
   0.0362346    0.0021079   -0.0069891    0.0743783   -0.0445421   -0.9962348
   0.0364779    0.0029176   -0.0067717    0.1308188    0.3383582   -0.9318799
   0.0364893    0.0036942   -0.0063675    0.1275503    0.5259432   -0.8409011
   0.0372310    0.0010304   -0.0060486    0.1016812   -0.8715214   -0.4796993
   0.0370006    0.0003123   -0.0025004    0.0939446   -0.9309954    0.3527350
   0.0375313    0.0005144   -0.0042919    0.1061899   -0.9765002   -0.1875394
   0.0379228    0.0004513   -0.0036833    0.0122585   -0.9894652   -0.1442509
   0.0376917    0.0003331   -0.0027884    0.0044365   -0.9998430    0.0171559
   0.0374634    0.0004346   -0.0022457   -0.0217080   -0.8519302    0.5232052
   0.0386689    0.0007094   -0.0055550   -0.1688762   -0.9471178   -0.2728530
   0.0377249    0.0012751   -0.0063530    0.0461268   -0.7442463   -0.6663105
   0.0385537    0.0010215   -0.0061769   -0.1476395   -0.7927890   -0.5913444
   0.0382251    0.0005935   -0.0046279   -0.0421807   -0.9842254   -0.1718170
   0.0055720    0.0004569   -0.0053470    0.0740740    0.1594357   -0.9844254
   0.0050317    0.0003286   -0.0053599   -0.1345871    0.1099460   -0.9847833
   0.0044978   -0.0000562   -0.0052616   -0.2219763   -0.0415583   -0.9741660
   0.0041821   -0.0007933   -0.0050608   -0.2252550   -0.2503955   -0.9415743
   0.0036287   -0.0030606   -0.0033744   -0.2548832   -0.8877464   -0.3833287
   0.0033708   -0.0022180   -0.0042197   -0.3804273   -0.5364593   -0.7533170
   0.0028161   -0.0026809   -0.0034161   -0.3393875   -0.7721175   -0.5372623
   0.0036624   -0.0015804   -0.0046459   -0.3949343   -0.3388808   -0.8539243
   0.0032439   -0.0031197   -0.0026455   -0.2399579   -0.9574038   -0.1606181
   0.0023469   -0.0029460   -0.0012208   -0.2537100   -0.9585036    0.1300084
   0.0025649   -0.0030298   -0.0020756   -0.2611141   -0.9625698   -0.0726554
   0.0061388    0.0015976    0.0005393    0.1262201    0.3060281    0.9436182
   0.0061180    0.0009741    0.0007135    0.1148025    0.2299652    0.9664038
   0.0055101    0.0003516    0.0009038    0.0835817    0.1304937    0.9879198
   0.0058791   -0.0002155    0.0009293    0.0505548    0.0389356    0.9979620
   0.0048326   -0.0004403    0.0010037    0.0500863   -0.0479775    0.9975919
   0.0049293   -0.0011191    0.0009042    0.0487950   -0.2415790    0.9691536
   0.0037161   -0.0019671    0.0006438   -0.1121226   -0.4353813    0.8932366
   0.0031368   -0.0021490    0.0004066   -0.2352691   -0.5291922    0.8152325
   0.0025403   -0.0023948    0.0000132   -0.2600894   -0.6533125    0.7110107
   0.0040809   -0.0015530    0.0008141    0.0074182   -0.3174242    0.9482546
   0.0024351   -0.0027913   -0.0005002   -0.2038634   -0.8771122    0.4348723
   0.0086500    0.0030666   -0.0031471   -0.0788852    0.9061799   -0.4154697
   0.0081968    0.0029168   -0.0033706   -0.0594148    0.8569766   -0.5119189
   0.0081183    0.0024516   -0.0039686   -0.0707300    0.7213183   -0.6889827
   0.0071524    0.0019042   -0.0044048    0.0865760    0.5593600   -0.8243913
   0.0060376    0.0008915   -0.0051855    0.1803232    0.3282188   -0.9272303
   0.0068220    0.0033336   -0.0021826    0.0785929    0.9867033   -0.1422666
   0.0053574    0.0035076   -0.0018907    0.0072320    0.9971193   -0.0755034
   0.0042459    0.0034137   -0.0018911   -0.1765915    0.9834417   -0.0407177
   0.0042405    0.0033560   -0.0015815   -0.1846142    0.9590499    0.2148041
   0.0035578    0.0029842   -0.0009534   -0.2371598    0.8735930    0.4249593
   0.0033256    0.0031678   -0.0016983   -0.3210462    0.9394132    0.1201340
   0.0033559    0.0030991   -0.0013688   -0.3028423    0.8914925    0.3369386
   0.0037230    0.0027126   -0.0003745   -0.2048911    0.8269930    0.5235478
   0.0036454    0.0020016    0.0003906   -0.1234712    0.6117973    0.7813187
   0.0031447    0.0021812    0.0001223   -0.2486554    0.7344426    0.6314780
   0.0042356    0.0018230    0.0005777   -0.0478330    0.4919468    0.8693103
   0.0051834    0.0010494    0.0008063    0.0823531    0.2395461    0.9673860
   0.0036482    0.0012570    0.0008077   -0.1132731    0.3542774    0.9282547
   0.0035326    0.0006863    0.0009741   -0.0458694    0.2044557    0.9778005
   0.0073601    0.0030599   -0.0029986    0.0222538    0.8991752   -0.4370225
   0.0067785    0.0032073   -0.0026758    0.0661549    0.9503067   -0.3042049
   0.0343522    0.0052175   -0.0045423   -0.0737994    0.9779855   -0.1951873
   0.0360042    0.0051699   -0.0043678    0.0054071    0.9929606    0.1183214
   0.0367755    0.0050369   -0.0038849   -0.0876424    0.9199392    0.3821396
   0.0371372    0.0051168   -0.0038671   -0.0153535    0.8981523    0.4394163
   0.0388528    0.0037064   -0.0024903   -0.0389220    0.6082580    0.7927845
   0.0386847    0.0040437   -0.0029963   -0.0648984    0.7198081    0.6911327
   0.0375799    0.0050619   -0.0039050    0.1967804    0.9323074    0.3034474
   0.0381092    0.0049544   -0.0036868    0.1111831    0.9058991    0.4086381
   0.0386013    0.0044292   -0.0033576    0.0071216    0.5730014    0.8195235
   0.0345868    0.0051347   -0.0048273    0.0144781    0.9633466   -0.2678687
   0.0351445    0.0051543   -0.0047775    0.0120064    0.9710507   -0.2385715
   0.0378919    0.0005978   -0.0020110   -0.0441854   -0.5409179    0.8399140
   0.0381141    0.0007284   -0.0019695   -0.1853432   -0.1873893    0.9646415
   0.0387838    0.0012403   -0.0017598   -0.2867614    0.2123526    0.9341704
   0.0395456    0.0011505   -0.0016337    0.0070214    0.1321345    0.9912069
   0.0390371    0.0027783   -0.0020901   -0.0982919    0.2542025    0.9621433
   0.0396727    0.0027358   -0.0020705    0.2019737    0.3641675    0.9091692
   0.0393284    0.0031623   -0.0021363    0.0484940    0.4050029    0.9130285
   0.0347259    0.0045448   -0.0057504   -0.0315378    0.7244822   -0.6885716
   0.0349051    0.0049389   -0.0052573   -0.0078096    0.8546980   -0.5190668
   0.0356021    0.0043044   -0.0059795    0.0215542    0.6509743   -0.7587937
   0.0361325    0.0040977   -0.0061238    0.0656979    0.6014058   -0.7962379
   0.0364384    0.0017498   -0.0069000    0.1084542   -0.2866316   -0.9518824
   0.0369189    0.0019752   -0.0068752    0.1765015   -0.1250082   -0.9763299
   0.0370984    0.0016652   -0.0067630    0.1365022   -0.3671434   -0.9200939
   0.0366752    0.0023408   -0.0069043    0.1616020    0.0983014   -0.9819479
   0.0370656    0.0026339   -0.0067579    0.2002870    0.2490854   -0.9475450
   0.0372463    0.0031390   -0.0065027    0.2246346    0.4406634   -0.8691117
   0.0365163    0.0044896   -0.0057340    0.1079780    0.6985872   -0.7073306
   0.0371327    0.0039753   -0.0060300    0.2154060    0.5830284   -0.7833761
   0.0381960    0.0003446   -0.0031476   -0.1542621   -0.9740438   -0.1656557
   0.0385409    0.0004132   -0.0036010   -0.1909856   -0.9553196   -0.2255859
   0.0388562    0.0004504   -0.0042364   -0.2003884   -0.9674681   -0.1544342
   0.0383451    0.0002757   -0.0025953   -0.2631524   -0.9640954    0.0356490
   0.0381681    0.0003602   -0.0022553   -0.1642869   -0.8418305    0.5141315
   0.0394368    0.0003470   -0.0048637   -0.3431220   -0.9186707   -0.1957331
   0.0392397    0.0007172   -0.0059507   -0.2826847   -0.8316563   -0.4779509
   0.0377452    0.0015711   -0.0066106    0.0978291   -0.4008198   -0.9109187
   0.0384348    0.0014307   -0.0065054   -0.0386511   -0.4365267   -0.8988607
   0.0392409    0.0012368   -0.0065387   -0.1215475   -0.4451281   -0.8871793
   0.0057568    0.0011945   -0.0051101    0.0581979    0.4297218   -0.9010839
   0.0053357    0.0008398   -0.0052625   -0.0505476    0.3174274   -0.9469344
   0.0050600    0.0009804   -0.0051587   -0.1692625    0.4202548   -0.8914797
   0.0041150    0.0005879   -0.0050802   -0.2594493    0.2767298   -0.9252603
   0.0036293   -0.0002115   -0.0050220   -0.2718591   -0.0583347   -0.9605674
   0.0035365   -0.0008440   -0.0048710   -0.3508311   -0.2708398   -0.8964169
   0.0023507   -0.0028545   -0.0026715   -0.3470333   -0.9038194   -0.2503564
   0.0026550   -0.0019971   -0.0038980   -0.5272254   -0.2905091   -0.7985223
   0.0021783   -0.0022353   -0.0034570   -0.5621728   -0.4515679   -0.6928551
   0.0022557   -0.0024797   -0.0033270   -0.4920893   -0.5979093   -0.6327342
   0.0020705   -0.0026542   -0.0029886   -0.4424341   -0.7825401   -0.4380445
   0.0030399   -0.0009846   -0.0045214   -0.5039379   -0.3249974   -0.8002645
   0.0017515   -0.0018601   -0.0032812   -0.6051668   -0.3699645   -0.7049109
   0.0018183   -0.0010182   -0.0036902   -0.5769768   -0.3161589   -0.7530878
   0.0016469   -0.0027508   -0.0017620   -0.4376704   -0.8952215   -0.0838044
   0.0018309   -0.0026019   -0.0004971   -0.3657649   -0.7907166    0.4909005
   0.0014111   -0.0025867   -0.0009461   -0.5239111   -0.8095394    0.2648832
   0.0040497    0.0001995    0.0010519    0.0225843    0.0801846    0.9965242
   0.0035290   -0.0004684    0.0010301   -0.0962852   -0.1030187    0.9900082
   0.0039236   -0.0009994    0.0009660   -0.0082327   -0.1950510    0.9807585
   0.0035449   -0.0014404    0.0008354   -0.1650078   -0.3109792    0.9359831
   0.0026380   -0.0017554    0.0004454   -0.2960222   -0.4081469    0.8635895
   0.0013588   -0.0019860   -0.0002700   -0.5040155   -0.5826249    0.6375865
   0.0076505    0.0025825   -0.0037805   -0.0246557    0.7502775   -0.6606632
   0.0074263    0.0027568   -0.0035317    0.0032647    0.8142837   -0.5804579
   0.0070119    0.0022902   -0.0040980    0.0843977    0.6944146   -0.7146086
   0.0058803    0.0017435   -0.0047599    0.0770326    0.5862547   -0.8064561
   0.0058708    0.0032773   -0.0028361    0.0652796    0.9352063   -0.3480340
   0.0052965    0.0032149   -0.0029700   -0.0457984    0.9153020   -0.4001560
   0.0046775    0.0034219   -0.0022759   -0.1013762    0.9587836   -0.2654372
   0.0041566    0.0032355   -0.0025723   -0.2104890    0.8977241   -0.3870216
   0.0032461    0.0029938   -0.0025471   -0.2567458    0.8835824   -0.3916168
   0.0033047    0.0031552   -0.0020892   -0.2752297    0.9526475   -0.1292722
   0.0026825    0.0023522   -0.0004943   -0.3658644    0.7881720    0.4949021
   0.0030115    0.0030327   -0.0022069   -0.4296116    0.8902663   -0.1511946
   0.0022696    0.0026563   -0.0017430   -0.4932764    0.8696924   -0.0177062
   0.0026553    0.0028416   -0.0014799   -0.4217063    0.8883455    0.1816756
   0.0019356    0.0023869   -0.0011631   -0.4411747    0.8538441    0.2762519
   0.0031894    0.0015904    0.0005814   -0.1932767    0.4343354    0.8797709
   0.0027145    0.0017615    0.0003546   -0.3554173    0.5421363    0.7614242
   0.0027627    0.0005560    0.0009012   -0.2866432    0.3151989    0.9047018
   0.0028235    0.0011852    0.0006010   -0.3298397    0.3532952    0.8754361
   0.0029543    0.0000167    0.0009966   -0.1612235   -0.0263978    0.9865648
   0.0025609    0.0002213    0.0009067   -0.3322517    0.0574291    0.9414408
   0.0067566    0.0028038   -0.0035093    0.0871217    0.8308986   -0.5495610
   0.0065180    0.0029789   -0.0032770    0.0933349    0.8821302   -0.4616654
   0.0361477    0.0051139   -0.0047710    0.0210745    0.9593712   -0.2813587
   0.0369114    0.0052017   -0.0043664   -0.0196672    0.9994238   -0.0276641
   0.0373600    0.0051800   -0.0041574    0.1519985    0.9874758    0.0422839
   0.0390531    0.0041367   -0.0029441   -0.0061306    0.7431011    0.6691511
   0.0397287    0.0035570   -0.0025929    0.3332612    0.6420413    0.6904491
   0.0383104    0.0048549   -0.0043829    0.2770311    0.9443740   -0.1772331
   0.0376308    0.0050978   -0.0044132    0.2933262    0.9412572   -0.1673159
   0.0387421    0.0048072   -0.0034756    0.1984026    0.7982220    0.5687512
   0.0389581    0.0046843   -0.0043058    0.2442826    0.9672718   -0.0686393
   0.0392867    0.0044407   -0.0033987    0.2498504    0.7475607    0.6154087
   0.0391121    0.0046325   -0.0034920    0.3724511    0.7717799    0.5153989
   0.0358648    0.0048845   -0.0053007    0.0497251    0.8529833   -0.5195642
   0.0383045    0.0008536   -0.0018055   -0.3966049   -0.2060741    0.8945602
   0.0390342    0.0007845   -0.0017081   -0.1821953   -0.1593547    0.9702634
   0.0401308    0.0006257   -0.0016218    0.0185576   -0.0362502    0.9991704
   0.0405988    0.0016297   -0.0018580    0.1744380    0.2966462    0.9389209
   0.0402970    0.0030645   -0.0025286    0.3286516    0.5904191    0.7371522
   0.0404370    0.0024337   -0.0021531    0.2630071    0.4588663    0.8486866
   0.0355116    0.0046886   -0.0055815    0.0251714    0.7647712   -0.6438101
   0.0373622    0.0022051   -0.0067862    0.1966112    0.0348344   -0.9798625
   0.0375923    0.0018832   -0.0067429    0.1832576   -0.0901259   -0.9789249
   0.0377570    0.0024699   -0.0066457    0.2049766    0.2528822   -0.9455344
   0.0377428    0.0035883   -0.0060922    0.2527135    0.5241792   -0.8132478
   0.0381976    0.0030204   -0.0062863    0.2099843    0.4578403   -0.8638801
   0.0371439    0.0046389   -0.0054322    0.1797757    0.7549362   -0.6306758
   0.0378204    0.0041562   -0.0056563    0.2637779    0.6458738   -0.7164275
   0.0392083    0.0000131   -0.0030898   -0.3350283   -0.9243127   -0.1827625
   0.0393765    0.0002020   -0.0037917   -0.3734510   -0.9033853   -0.2107828
   0.0390280    0.0000145   -0.0023020   -0.2896011   -0.9490644    0.1241288
   0.0388080    0.0001684   -0.0020543   -0.3284648   -0.7335244    0.5950235
   0.0401426    0.0002151   -0.0055720   -0.4011182   -0.8533107   -0.3331141
   0.0398235    0.0001212   -0.0046367   -0.4650207   -0.8654473   -0.1864315
   0.0394548    0.0010300   -0.0064395   -0.2045265   -0.5845811   -0.7851330
   0.0395663    0.0007280   -0.0061436   -0.2816591   -0.7466432   -0.6026542
   0.0380380    0.0020765   -0.0066722    0.1399241   -0.0033700   -0.9901565
   0.0382965    0.0017848   -0.0066398    0.0790311   -0.1151421   -0.9902002
   0.0387702    0.0019283   -0.0066227    0.0468872   -0.0051237   -0.9988871
   0.0390398    0.0015980   -0.0066119   -0.0054078   -0.0638479   -0.9979450
   0.0394903    0.0017985   -0.0066012    0.0282292    0.1038147   -0.9941960
   0.0397721    0.0014674   -0.0066242   -0.0053278   -0.1414116   -0.9899366
   0.0054391    0.0014312   -0.0049590   -0.1056760    0.5475149   -0.8300964
   0.0047508    0.0012245   -0.0049364   -0.2204000    0.5084888   -0.8323839
   0.0040365    0.0013361   -0.0046685   -0.2508311    0.5349301   -0.8068045
   0.0033889    0.0006708   -0.0048099   -0.4107364    0.3301173   -0.8498930
   0.0034882    0.0002764   -0.0049597   -0.3192175    0.1474994   -0.9361325
   0.0032489    0.0000076   -0.0049003   -0.4448088    0.0956365   -0.8905048
   0.0033014   -0.0004490   -0.0048833   -0.4531356   -0.2336166   -0.8602857
   0.0015416   -0.0024402   -0.0025969   -0.6138362   -0.6723441   -0.4137132
   0.0007856   -0.0014749   -0.0026501   -0.7019382   -0.3624198   -0.6131352
   0.0007433   -0.0019340   -0.0021087   -0.7145909   -0.6192988   -0.3253136
   0.0003810   -0.0007930   -0.0023801   -0.8495383   -0.1824515   -0.4949709
   0.0008777   -0.0004235   -0.0031924   -0.7077562   -0.1848447   -0.6818458
   0.0018686   -0.0002685   -0.0040159   -0.5888229   -0.1181283   -0.7995832
   0.0009686   -0.0023001   -0.0013940   -0.6844112   -0.7264728    0.0617946
   0.0033744   -0.0009881    0.0009328   -0.1829364   -0.2048634    0.9615432
   0.0027444   -0.0007942    0.0007725   -0.2940742   -0.2111062    0.9321773
   0.0018507   -0.0013078    0.0003786   -0.3245510   -0.3229687    0.8890207
   0.0004461   -0.0016393   -0.0010578   -0.7819762   -0.5851781    0.2146620
   0.0011918   -0.0012546    0.0001428   -0.4378104   -0.3069104    0.8450610
   0.0007002   -0.0013947   -0.0002688   -0.6503603   -0.4359853    0.6220517
   0.0065507    0.0024638   -0.0039899    0.1008815    0.7438045   -0.6607404
   0.0057485    0.0020193   -0.0045501   -0.0170891    0.6544569   -0.7559062
   0.0058594    0.0027931   -0.0037287    0.0496233    0.8296531   -0.5560694
   0.0052103    0.0028527   -0.0035778   -0.1351196    0.8061129   -0.5761291
   0.0046624    0.0031432   -0.0029473   -0.1561984    0.8708949   -0.4659873
   0.0043521    0.0028465   -0.0032774   -0.2145782    0.7882863   -0.5766809
   0.0035700    0.0028878   -0.0029204   -0.2416823    0.8178448   -0.5222256
   0.0029140    0.0025450   -0.0030972   -0.3371624    0.7619170   -0.5529954
   0.0030102    0.0029316   -0.0025020   -0.3780700    0.8648426   -0.3303186
   0.0029352    0.0027706   -0.0027685   -0.4151172    0.7945652   -0.4431071
   0.0018790    0.0016418   -0.0001242   -0.4282319    0.5726207    0.6990872
   0.0015335    0.0019155   -0.0005884   -0.4244420    0.7170665    0.5528694
   0.0021728    0.0024708   -0.0023233   -0.5367300    0.7853133   -0.3085514
   0.0010955    0.0019363   -0.0016768   -0.5751690    0.8006532   -0.1677354
   0.0008093    0.0016932   -0.0009867   -0.5646463    0.7202868    0.4029410
   0.0018490    0.0007424    0.0003140   -0.4590994    0.3048715    0.8344346
   0.0016704   -0.0004911    0.0004350   -0.4093009   -0.0325249    0.9118196
   0.0366269    0.0050165   -0.0049882    0.0604623    0.9027370   -0.4259227
   0.0371309    0.0050921   -0.0047356    0.1675059    0.9039110   -0.3935564
   0.0404284    0.0042805   -0.0038983    0.4163940    0.8192924    0.3941775
   0.0403459    0.0036784   -0.0031249    0.3946597    0.6658450    0.6331620
   0.0397168    0.0044647   -0.0036273    0.3136238    0.8433451    0.4363591
   0.0390519    0.0045622   -0.0046600    0.2191504    0.8877816   -0.4047432
   0.0382401    0.0046432   -0.0049236    0.2638298    0.8075469   -0.5275053
   0.0392745    0.0045686   -0.0036255    0.2850556    0.9113554    0.2969421
   0.0398534    0.0045437   -0.0041810    0.2996650    0.9515696   -0.0686747
   0.0395334    0.0045978   -0.0038133    0.2006600    0.9576095    0.2066874
   0.0392532    0.0003595   -0.0017571   -0.1887925   -0.4177884    0.8887127
   0.0399282    0.0002928   -0.0017200   -0.1153262   -0.5147374    0.8495559
   0.0405479    0.0002268   -0.0016945   -0.0181652   -0.2320985    0.9725227
   0.0412659    0.0005684   -0.0017610    0.1249465    0.0834762    0.9886456
   0.0408906    0.0011743   -0.0018029    0.1567193    0.2177544    0.9633390
   0.0418935    0.0018060   -0.0021987    0.2109397    0.3827329    0.8994554
   0.0412123    0.0024105   -0.0023711    0.2427946    0.5290327    0.8131268
   0.0414783    0.0029213   -0.0029000    0.2746173    0.6856226    0.6741713
   0.0409377    0.0034433   -0.0032277    0.3495467    0.7087142    0.6128142
   0.0384539    0.0022706   -0.0065782    0.1256878    0.2594449   -0.9575442
   0.0386189    0.0037633   -0.0057041    0.1803329    0.5886080   -0.7880486
   0.0390018    0.0029269   -0.0062064    0.1094223    0.4734846   -0.8739789
   0.0376921    0.0045548   -0.0053125    0.2737657    0.7503938   -0.6016323
   0.0387118    0.0041209   -0.0053659    0.1992751    0.7058379   -0.6797664
   0.0400582   -0.0003787   -0.0028199   -0.4289071   -0.8974823   -0.1027819
   0.0392242   -0.0000485   -0.0025488   -0.3235500   -0.9386758    0.1191770
   0.0405573   -0.0004705   -0.0036737   -0.5295031   -0.8316946   -0.1670649
   0.0394424    0.0000592   -0.0019788   -0.1627371   -0.8319230    0.5304910
   0.0402572    0.0003896   -0.0060507   -0.3189585   -0.7498912   -0.5795935
   0.0412939   -0.0003435   -0.0057148   -0.4463348   -0.7618822   -0.4693833
   0.0412687   -0.0006724   -0.0048503   -0.5094485   -0.8238147   -0.2485790
   0.0408441   -0.0004758   -0.0046164   -0.5058879   -0.8458685   -0.1690680
   0.0399901    0.0010465   -0.0065448   -0.0735888   -0.3658005   -0.9277794
   0.0402134    0.0006589   -0.0063571   -0.1928823   -0.5712338   -0.7978022
   0.0391611    0.0021671   -0.0065390    0.0835701    0.2571607   -0.9627484
   0.0399709    0.0023753   -0.0063837    0.1413841    0.3655722   -0.9199823
   0.0401055    0.0017187   -0.0065752    0.1024367    0.1225725   -0.9871589
   0.0051260    0.0017082   -0.0046950   -0.1811776    0.5992899   -0.7797604
   0.0050174    0.0021051   -0.0043327   -0.1960349    0.6621179   -0.7233050
   0.0035781    0.0018078   -0.0041517   -0.2580963    0.6364669   -0.7268399
   0.0032578    0.0013327   -0.0043969   -0.3928940    0.4890055   -0.7787862
   0.0026793    0.0008725   -0.0042799   -0.5157869    0.3654309   -0.7748704
   0.0021161    0.0003950   -0.0040792   -0.5636095    0.2693049   -0.7809093
   0.0023574   -0.0000413   -0.0043807   -0.5581917    0.1060841   -0.8229023
   0.0026172   -0.0002061   -0.0045427   -0.5209214   -0.1244427   -0.8444850
   0.0002708   -0.0014296   -0.0018750   -0.8708148   -0.4163860   -0.2613511
   0.0000552   -0.0009281   -0.0013325   -0.9696510   -0.2444217   -0.0059106
   0.0000000    0.0000000   -0.0015000   -0.9899614    0.0615007   -0.1272558
   0.0003775    0.0000991   -0.0025458   -0.8478415    0.1207299   -0.5163226
   0.0010507    0.0000956   -0.0033722   -0.6728879    0.1633192   -0.7214906
   0.0002812   -0.0009584   -0.0005743   -0.8257637   -0.2743936    0.4927701
   0.0007981   -0.0007832   -0.0000027   -0.5823005   -0.1002264    0.8067718
   0.0056474    0.0024522   -0.0041420   -0.0568795    0.7278526   -0.6833705
   0.0050277    0.0025102   -0.0039226   -0.2010224    0.7289080   -0.6544334
   0.0040917    0.0023752   -0.0037563   -0.2265785    0.7168164   -0.6594213
   0.0034581    0.0025633   -0.0033160   -0.2413295    0.7541037   -0.6108090
   0.0030684    0.0021489   -0.0036289   -0.2759550    0.6944213   -0.6645509
   0.0027408    0.0020912   -0.0035365   -0.4471239    0.6438227   -0.6209449
   0.0022602    0.0022020   -0.0029179   -0.5394184    0.6889076   -0.4841840
   0.0010139    0.0012812   -0.0003962   -0.5344348    0.4767845    0.6978939
   0.0013043    0.0016951   -0.0025092   -0.6173669    0.6300820   -0.4710147
   0.0002989    0.0010305   -0.0018531   -0.8251532    0.3455739   -0.4468790
   0.0002375    0.0013998   -0.0013444   -0.6667638    0.7422348    0.0671824
   0.0001856    0.0009402   -0.0010170   -0.8569680    0.2720609    0.4377084
   0.0006446    0.0004862   -0.0002882   -0.6079620    0.2789899    0.7433350
   0.0010052   -0.0000704    0.0000947   -0.4971501    0.1287048    0.8580658
   0.0407387    0.0041565   -0.0043941    0.3902983    0.9129808   -0.1188839
   0.0410056    0.0039658   -0.0039521    0.4166362    0.8292872    0.3724206
   0.0390210    0.0043218   -0.0050459    0.1801856    0.7734592   -0.6076957
   0.0399530    0.0040291   -0.0052089    0.1828851    0.7581559   -0.6259016
   0.0402416    0.0042045   -0.0047974    0.2791871    0.8679370   -0.4107798
   0.0397014   -0.0001322   -0.0021963   -0.2369931   -0.8356051    0.4955788
   0.0401505   -0.0000110   -0.0018775   -0.2345961   -0.6471978    0.7253273
   0.0408582   -0.0000983   -0.0017753   -0.1318196   -0.5032862    0.8540062
   0.0412384    0.0001580   -0.0017380    0.0332535   -0.1304642    0.9908952
   0.0415425   -0.0002490   -0.0017667   -0.0820605   -0.2027244    0.9757914
   0.0423155   -0.0005802   -0.0017940   -0.0063616   -0.0454268    0.9989474
   0.0426621    0.0001915   -0.0019275    0.1436816    0.1685154    0.9751708
   0.0422323    0.0012521   -0.0020626    0.2027955    0.2875940    0.9360362
   0.0426791    0.0019813   -0.0025183    0.2431060    0.4978014    0.8325222
   0.0426939    0.0024793   -0.0028981    0.2452378    0.6747934    0.6960691
   0.0413786    0.0035281   -0.0035588    0.3215996    0.7759034    0.5427224
   0.0425119    0.0029688   -0.0033454    0.2801840    0.7726340    0.5696785
   0.0398591    0.0033403   -0.0058486    0.1376856    0.5970168   -0.7903250
   0.0395580    0.0038331   -0.0054804    0.1431576    0.6897553   -0.7097489
   0.0402863    0.0027379   -0.0061539    0.1869772    0.4777663   -0.8583582
   0.0403332   -0.0004722   -0.0032157   -0.5053678   -0.8569433   -0.1012497
   0.0406904   -0.0005824   -0.0023376   -0.3827853   -0.8388893    0.3869627
   0.0399423   -0.0002861   -0.0024428   -0.3403707   -0.8847302    0.3184340
   0.0416317   -0.0012442   -0.0032486   -0.5532526   -0.8281904   -0.0895116
   0.0409172   -0.0007958   -0.0026860   -0.4645066   -0.8724006    0.1521538
   0.0412009   -0.0009831   -0.0029361   -0.5333653   -0.8408592    0.0920714
   0.0409155    0.0005778   -0.0064645   -0.0980965   -0.4443069   -0.8904878
   0.0411411    0.0002278   -0.0062951   -0.2483619   -0.5621046   -0.7888947
   0.0412552   -0.0000394   -0.0060822   -0.3788339   -0.6379812   -0.6704214
   0.0421539   -0.0003913   -0.0062064   -0.2950820   -0.5366434   -0.7905317
   0.0418393   -0.0008818   -0.0053216   -0.5202690   -0.7442663   -0.4187933
   0.0423046   -0.0013399   -0.0049511   -0.5800053   -0.7755190   -0.2493272
   0.0405647    0.0011320   -0.0065709    0.0311287   -0.1126864   -0.9931429
   0.0406488    0.0018191   -0.0064658    0.1953752    0.2423647   -0.9503094
   0.0415939    0.0017393   -0.0062293    0.2937033    0.3706794   -0.8810988
   0.0029480    0.0017715   -0.0039286   -0.4137808    0.5582215   -0.7191483
   0.0022455    0.0011311   -0.0038380   -0.5460612    0.4176059   -0.7262386
   0.0011300    0.0008541   -0.0030619   -0.6535213    0.4082351   -0.6373806
   0.0000241   -0.0004235   -0.0008472   -0.9462822   -0.0696948    0.3157414
   0.0001015    0.0001560   -0.0007461   -0.8838600    0.1612202    0.4390894
   0.0003803   -0.0002766   -0.0003285   -0.7137799    0.0337733    0.6995553
   0.0019863    0.0016215   -0.0032950   -0.5681126    0.5334839   -0.6266124
  -0.0000078    0.0011700   -0.0013700   -0.9741241    0.2238627   -0.0311084
   0.0406338    0.0038875   -0.0051059    0.3048879    0.7939961   -0.5259406
   0.0411558    0.0039229   -0.0046541    0.3758456    0.8845466   -0.2762559
   0.0412559    0.0039109   -0.0041398    0.3944513    0.8997881    0.1865195
   0.0404491    0.0035282   -0.0055807    0.2255735    0.6322197   -0.7412252
   0.0403823   -0.0003094   -0.0020730   -0.2900931   -0.7463614    0.5989914
   0.0410940   -0.0004230   -0.0019087   -0.2237491   -0.4745009    0.8513432
   0.0413136   -0.0006798   -0.0020267   -0.3195274   -0.6613225    0.6786418
   0.0417716   -0.0005770   -0.0018142   -0.2182199   -0.4105128    0.8853583
   0.0422321   -0.0011219   -0.0019361   -0.3704763   -0.4452508    0.8151681
   0.0426149   -0.0010174   -0.0017893   -0.1222512   -0.0694217    0.9900683
   0.0432883   -0.0007394   -0.0018528    0.0741584    0.1371003    0.9877773
   0.0436212   -0.0003990   -0.0019519    0.1233719    0.2122930    0.9693869
   0.0432025    0.0006239   -0.0021171    0.1745660    0.2601030    0.9496700
   0.0433414    0.0015065   -0.0024432    0.2205950    0.4258659    0.8774828
   0.0437796    0.0021548   -0.0029776    0.2795587    0.6214487    0.7318801
   0.0430514    0.0029378   -0.0035470    0.2976909    0.8120984    0.5018728
   0.0435757    0.0027092   -0.0035051    0.3585717    0.8433859    0.4001582
   0.0436504    0.0025124   -0.0032630    0.3114146    0.7249156    0.6144253
   0.0420382    0.0035308   -0.0039530    0.3516157    0.8758051    0.3306536
   0.0426045    0.0033087   -0.0040119    0.3569032    0.8785460    0.3174540
   0.0409840    0.0028901   -0.0058691    0.2831692    0.4953443   -0.8212485
   0.0423302   -0.0017918   -0.0030859   -0.6556300   -0.7550718    0.0039732
   0.0419440   -0.0013870   -0.0025305   -0.5692058   -0.7659643    0.2988370
   0.0416289   -0.0010075   -0.0022408   -0.4356443   -0.7449979    0.5051655
   0.0413570    0.0008369   -0.0064847    0.1080791   -0.0618483   -0.9922166
   0.0418328    0.0001062   -0.0063594   -0.0879414   -0.3144358   -0.9451965
   0.0426046   -0.0001177   -0.0063190    0.0472886   -0.1060376   -0.9932370
   0.0428036   -0.0005443   -0.0062636   -0.0758198   -0.2416080   -0.9674073
   0.0424739   -0.0009297   -0.0059483   -0.4266303   -0.5670182   -0.7046112
   0.0430195   -0.0015750   -0.0056199   -0.5292131   -0.7075146   -0.4683552
   0.0428323   -0.0021875   -0.0035033   -0.6333441   -0.7499326   -0.1909880
   0.0430196   -0.0021154   -0.0041758   -0.5696750   -0.7793765   -0.2608501
   0.0431434   -0.0018258   -0.0053258   -0.5328603   -0.7725256   -0.3453464
   0.0415656    0.0013388   -0.0063619    0.2478599    0.2121291   -0.9452866
   0.0414789    0.0022535   -0.0060274    0.3339253    0.4356802   -0.8358688
   0.0429526    0.0006231   -0.0061115    0.3254667    0.2537894   -0.9108580
   0.0426393    0.0017699   -0.0057508    0.4104281    0.4602633   -0.7872144
   0.0432350    0.0009394   -0.0058788    0.3921644    0.3783764   -0.8384739
   0.0411222    0.0033476   -0.0054741    0.3380220    0.6345939   -0.6950049
   0.0413784    0.0036088   -0.0050349    0.3955620    0.7629852   -0.5112575
   0.0417037    0.0037418   -0.0044111    0.4074693    0.9020335   -0.1424932
   0.0428415   -0.0019670   -0.0021165   -0.6083751   -0.6077869    0.5103673
   0.0431244   -0.0015172   -0.0017592   -0.1852021   -0.1637084    0.9689684
   0.0436904   -0.0016323   -0.0017618   -0.0130709    0.0224464    0.9996626
   0.0448209   -0.0017097   -0.0018037    0.0831588    0.1124244    0.9901744
   0.0454703   -0.0011588   -0.0019855    0.1526512    0.1868118    0.9704633
   0.0444788    0.0002790   -0.0022262    0.1309187    0.2628801    0.9559050
   0.0452798   -0.0000448   -0.0022283    0.1529343    0.2803380    0.9476401
   0.0440394    0.0009840   -0.0023786    0.1671503    0.3677636    0.9147736
   0.0442619    0.0019266   -0.0029372    0.2378219    0.5991706    0.7644837
   0.0442285    0.0024452   -0.0035794    0.4108823    0.8237171    0.3907249
   0.0433422    0.0029243   -0.0038019    0.4756239    0.8793110    0.0243756
   0.0439501    0.0025774   -0.0039840    0.4899413    0.8522865   -0.1832083
   0.0422024    0.0035296   -0.0042551    0.4513593    0.8902532   -0.0610247
   0.0417141    0.0027035   -0.0056619    0.3850853    0.5129273   -0.7672124
   0.0427137   -0.0021697   -0.0030665   -0.7002495   -0.7125304    0.0441713
   0.0422013    0.0004508   -0.0063572    0.1816814    0.0764560   -0.9803807
   0.0432300   -0.0002157   -0.0062042    0.2030128    0.0777708   -0.9760827
   0.0430968   -0.0009677   -0.0062037   -0.1267886   -0.2354360   -0.9635842
   0.0433817   -0.0014062   -0.0060947   -0.3058376   -0.4753805   -0.8249101
   0.0436659   -0.0017966   -0.0059838   -0.3326275   -0.6074956   -0.7213238
   0.0433823   -0.0028003   -0.0027221   -0.6647793   -0.7447579    0.0583462
   0.0435505   -0.0027229   -0.0035761   -0.6101937   -0.7496631   -0.2562595
   0.0437132   -0.0024873   -0.0045055   -0.5678967   -0.7697423   -0.2915307
   0.0440230   -0.0022420   -0.0055878   -0.4520090   -0.7204627   -0.5259480
   0.0443120   -0.0027264   -0.0050048   -0.6166455   -0.6994231   -0.3613248
   0.0444476   -0.0010092   -0.0059706    0.3342179    0.1677539   -0.9274465
   0.0442652    0.0004743   -0.0055837    0.4379700    0.3559914   -0.8255013
   0.0423121    0.0025310   -0.0054453    0.4458042    0.5237309   -0.7259232
   0.0428660    0.0026697   -0.0049702    0.4711615    0.6141658   -0.6330934
   0.0435390    0.0016927   -0.0053106    0.4397015    0.4883747   -0.7537591
   0.0418470    0.0031266   -0.0052667    0.4298071    0.6274758   -0.6492611
   0.0421340    0.0034333   -0.0046343    0.4638557    0.7700812   -0.4379645
   0.0434577   -0.0021372   -0.0018359   -0.3266181   -0.3195231    0.8895086
   0.0433959   -0.0025615   -0.0021457   -0.5790568   -0.6016022    0.5502436
   0.0444596   -0.0026261   -0.0017117   -0.1314236   -0.1426682    0.9810064
   0.0449567   -0.0027675   -0.0017500    0.1154616    0.0015595    0.9933107
   0.0452606   -0.0021791   -0.0018043    0.1659907    0.0771246    0.9831068
   0.0459762   -0.0005188   -0.0022324    0.3087077    0.1998080    0.9299335
   0.0457422   -0.0018092   -0.0019462    0.2732895    0.1068765    0.9559761
   0.0462169    0.0000601   -0.0024640    0.3519161    0.3161454    0.8810262
   0.0456546    0.0007047   -0.0025740    0.2523576    0.4387734    0.8624347
   0.0446319    0.0011945   -0.0025855    0.2206504    0.4977286    0.8387966
   0.0445802    0.0020098   -0.0031364    0.3396438    0.7300974    0.5929586
   0.0446734    0.0021759   -0.0037814    0.5248349    0.8440426   -0.1101834
   0.0435303    0.0025454   -0.0045294    0.4988246    0.7284208   -0.4696564
   0.0431687    0.0028604   -0.0044451    0.5262929    0.7662045   -0.3687091
   0.0441839    0.0020937   -0.0045065    0.5138573    0.6940710   -0.5041984
   0.0438302   -0.0011918   -0.0061837    0.0717512   -0.1249454   -0.9895658
   0.0442520   -0.0018943   -0.0060269   -0.0245566   -0.3436663   -0.9387707
   0.0440121   -0.0031348   -0.0035900   -0.6864673   -0.6946216   -0.2150893
   0.0438967   -0.0031797   -0.0025391   -0.6696797   -0.7371138    0.0905117
   0.0437502   -0.0029649   -0.0022828   -0.6124424   -0.6779404    0.4065847
   0.0440125   -0.0028126   -0.0043103   -0.6501440   -0.6877591   -0.3229553
   0.0444762   -0.0023456   -0.0058155   -0.2551657   -0.4910993   -0.8328937
   0.0446536   -0.0028183   -0.0054168   -0.5705450   -0.6633821   -0.4841514
   0.0447455   -0.0032385   -0.0049970   -0.7284890   -0.5231612   -0.4422738
   0.0444976   -0.0033758   -0.0042838   -0.7713475   -0.5556611   -0.3102641
   0.0448456   -0.0018046   -0.0059503    0.2240463   -0.0598129   -0.9727413
   0.0449148   -0.0006554   -0.0056580    0.4771498    0.2724837   -0.8355122
   0.0453172   -0.0017138   -0.0057169    0.4306109    0.1589784   -0.8884257
   0.0446911    0.0012057   -0.0049147    0.4863588    0.4842731   -0.7272790
   0.0451348    0.0005424   -0.0050139    0.5285018    0.4003085   -0.7486247
   0.0454262   -0.0002073   -0.0051537    0.5367840    0.3300616   -0.7764807
   0.0442324    0.0017231   -0.0048326    0.4971897    0.5949489   -0.6315364
   0.0438383   -0.0027107   -0.0019431   -0.4495119   -0.4708442    0.7591079
   0.0442945   -0.0032923   -0.0019889   -0.6173016   -0.5822446    0.5290842
   0.0448679   -0.0039548   -0.0019270   -0.5809527   -0.3843937    0.7174507
   0.0452067   -0.0035336   -0.0018229    0.0182916   -0.0834823    0.9963414
   0.0456934   -0.0027398   -0.0018852    0.2456080    0.0048648    0.9693570
   0.0467136   -0.0003010   -0.0026270    0.6185723    0.2410549    0.7478375
   0.0464378   -0.0008394   -0.0023485    0.4546443    0.1538370    0.8772871
   0.0462164   -0.0022610   -0.0020737    0.3959401    0.0761514    0.9151133
   0.0464744    0.0006617   -0.0028790    0.6502351    0.5110073    0.5621973
   0.0467180    0.0001016   -0.0027648    0.7394592    0.2459349    0.6266707
   0.0454058    0.0012862   -0.0028582    0.3298377    0.6009470    0.7280589
   0.0460704    0.0009921   -0.0029356    0.4509589    0.6645892    0.5957829
   0.0450876    0.0019517   -0.0033901    0.5227228    0.8424512    0.1305253
   0.0453879    0.0015974   -0.0031510    0.4677929    0.7433542    0.4781154
   0.0447742    0.0019971   -0.0040086    0.5462428    0.7293654   -0.4118797
   0.0443380   -0.0036082   -0.0033277   -0.7912105   -0.5942250   -0.1445082
   0.0441738   -0.0034742   -0.0027713   -0.7357548   -0.6701414    0.0978535
   0.0450294   -0.0029518   -0.0056482   -0.4413552   -0.4493242   -0.7767325
   0.0451121   -0.0023693   -0.0058490    0.1415915   -0.1066696   -0.9841613
   0.0448296   -0.0039023   -0.0044386   -0.8653178   -0.3850358   -0.3208932
   0.0451101   -0.0036684   -0.0052091   -0.7751863   -0.3162743   -0.5468608
   0.0447664   -0.0040621   -0.0038848   -0.8769241   -0.4372396   -0.1995637
   0.0457587   -0.0016312   -0.0054445    0.5215284    0.2391106   -0.8190447
   0.0460879   -0.0011563   -0.0050480    0.5675048    0.2963255   -0.7681988
   0.0458132   -0.0024701   -0.0056088    0.4183634    0.1255384   -0.8995622
   0.0454088    0.0010103   -0.0045183    0.5499108    0.5001609   -0.6689074
   0.0460238    0.0000602   -0.0045648    0.6227479    0.3699507   -0.6894356
   0.0451222    0.0015450   -0.0042746    0.5298123    0.6556680   -0.5379576
   0.0445426   -0.0039326   -0.0026765   -0.8139383   -0.5692898    0.1158166
   0.0449753   -0.0044652   -0.0023157   -0.8676549   -0.4395580    0.2323009
   0.0453084   -0.0049564   -0.0019912   -0.6377154   -0.2620877    0.7243129
   0.0456755   -0.0050273   -0.0019119   -0.0768458   -0.0338083    0.9964696
   0.0457803   -0.0039424   -0.0019280    0.2326975    0.0135117    0.9724553
   0.0467503   -0.0041354   -0.0022454    0.4377166    0.0631657    0.8968915
   0.0468664   -0.0010562   -0.0025905    0.6671327    0.1322439    0.7331067
   0.0469215   -0.0000398   -0.0032303    0.9149161    0.3838597    0.1248208
   0.0470346   -0.0006104   -0.0028305    0.7956213    0.2648200    0.5448460
   0.0468326   -0.0019251   -0.0024304    0.5589333    0.0889026    0.8244331
   0.0467546   -0.0030597   -0.0023215    0.5234053    0.0585472    0.8500701
   0.0462919    0.0009477   -0.0030646    0.5860088    0.7697609    0.2531046
   0.0464964    0.0008285   -0.0032083    0.7902219    0.6126527    0.0143504
   0.0468274    0.0002198   -0.0030038    0.8889679    0.3910213    0.2384080
   0.0465221    0.0006788   -0.0034458    0.8748554    0.4486000   -0.1827186
   0.0458079    0.0014399   -0.0032993    0.5718569    0.7843167    0.2404723
   0.0459685    0.0013105   -0.0034100    0.6747704    0.7368374   -0.0418986
   0.0454445    0.0016880   -0.0036486    0.5757135    0.8037492   -0.1501372
   0.0447895   -0.0042422   -0.0034805   -0.8887245   -0.4478038   -0.0981858
   0.0455893   -0.0037422   -0.0056136   -0.2469060   -0.2345138   -0.9402344
   0.0456020   -0.0030219   -0.0057303    0.1407200   -0.0827456   -0.9865855
   0.0449647   -0.0044641   -0.0041723   -0.9459695   -0.2607716   -0.1927169
   0.0450383   -0.0042951   -0.0046085   -0.9070929   -0.2765845   -0.3173065
   0.0455309   -0.0042804   -0.0054444   -0.4804391   -0.1330211   -0.8668816
   0.0452711   -0.0046241   -0.0050931   -0.8659700   -0.1410789   -0.4797840
   0.0463557   -0.0026043   -0.0053304    0.5665236    0.1932923   -0.8010550
   0.0465953   -0.0016988   -0.0048601    0.6594468    0.2752128   -0.6995626
   0.0465243   -0.0035956   -0.0053872    0.4541999    0.0945146   -0.8858721
   0.0459350    0.0009898   -0.0040576    0.6478003    0.5534586   -0.5234868
   0.0464744    0.0004194   -0.0038410    0.7594645    0.4558692   -0.4641089
   0.0468155   -0.0007563   -0.0041904    0.7469234    0.3172869   -0.5843239
   0.0455927    0.0014762   -0.0038629    0.6060137    0.7174278   -0.3435764
   0.0448089   -0.0043416   -0.0030776   -0.8964784   -0.4423770    0.0250802
   0.0451681   -0.0051211   -0.0026319   -0.9505868   -0.2642701    0.1629296
   0.0454426   -0.0057222   -0.0020499   -0.7994885   -0.1740811    0.5749035
   0.0464788   -0.0049435   -0.0020579    0.2827862    0.0798412    0.9558543
   0.0457474   -0.0059873   -0.0018698   -0.3052479   -0.0188191    0.9520870
   0.0472667   -0.0053452   -0.0023778    0.5525929    0.1137377    0.8256542
   0.0472621   -0.0041265   -0.0025550    0.6265520    0.0656506    0.7766097
   0.0475416   -0.0047797   -0.0026885    0.6896205    0.1306583    0.7122864
   0.0471987   -0.0015614   -0.0027931    0.7571389    0.1215496    0.6418461
   0.0472455   -0.0007644   -0.0031645    0.9186708    0.2599639    0.2974268
   0.0469636   -0.0001551   -0.0035097    0.8598584    0.4381349   -0.2620713
   0.0472076   -0.0006251   -0.0033262    0.9329820    0.3530055   -0.0702260
   0.0472413   -0.0028264   -0.0026733    0.6749897    0.0863508    0.7327567
   0.0462738    0.0008853   -0.0036405    0.7003007    0.6481082   -0.2992233
   0.0450345   -0.0048724   -0.0036010   -0.9603956   -0.2777732   -0.0219631
   0.0458663   -0.0034899   -0.0056320    0.2063116   -0.0225988   -0.9782253
   0.0461679   -0.0039410   -0.0055893    0.2038792   -0.0050194   -0.9789832
   0.0452073   -0.0052217   -0.0047715   -0.9486657   -0.0543046   -0.3115838
   0.0451267   -0.0051910   -0.0044156   -0.9896575   -0.1077216   -0.0947318
   0.0461164   -0.0047809   -0.0056144    0.0934323    0.0160760   -0.9954958
   0.0455587   -0.0048970   -0.0054066   -0.6183634    0.0051620   -0.7858754
   0.0454188   -0.0053245   -0.0052181   -0.7994521   -0.0804123   -0.5953236
   0.0469484   -0.0035444   -0.0050849    0.6597296    0.1463605   -0.7371129
   0.0471778   -0.0030117   -0.0047268    0.7170782    0.1970276   -0.6685648
   0.0471170   -0.0021366   -0.0044691    0.7886941    0.2599817   -0.5571096
   0.0471568   -0.0013249   -0.0039821    0.8213451    0.2852919   -0.4939643
   0.0468787   -0.0042767   -0.0052412    0.5797965    0.0806349   -0.8107614
   0.0469060   -0.0004332   -0.0038893    0.8003838    0.3491271   -0.4873357
   0.0472452   -0.0009238   -0.0035583    0.8993477    0.2877081   -0.3292381
   0.0451311   -0.0054214   -0.0035946   -0.9913403   -0.1248204    0.0407965
   0.0452533   -0.0060627   -0.0030648   -0.9850173   -0.0641818    0.1600674
   0.0453760   -0.0062139   -0.0024721   -0.9270775   -0.0840900    0.3653165
   0.0467375   -0.0057205   -0.0020404    0.3386263    0.1355232    0.9311099
   0.0463769   -0.0064797   -0.0018333    0.0116611    0.1514474    0.9883965
   0.0455446   -0.0065578   -0.0020436   -0.6860223   -0.0006618    0.7275803
   0.0476564   -0.0056703   -0.0026297    0.6547526    0.1528307    0.7402309
   0.0478199   -0.0052245   -0.0028947    0.7614806    0.1446601    0.6318392
   0.0478741   -0.0040668   -0.0032219    0.8310201    0.1003514    0.5471154
   0.0475957   -0.0037995   -0.0028986    0.7756392    0.0639359    0.6279300
   0.0480587   -0.0049699   -0.0033548    0.9466917    0.1385010    0.2908475
   0.0473685   -0.0015168   -0.0030346    0.8937637    0.1671445    0.4162321
   0.0474723   -0.0024371   -0.0029893    0.8287435    0.1889474    0.5267666
   0.0474830   -0.0017086   -0.0032291    0.9613538    0.1390785    0.2376049
   0.0474469   -0.0014465   -0.0034253    0.9632201    0.2496832   -0.0993247
   0.0477041   -0.0031777   -0.0031380    0.8218948    0.1091279    0.5590886
   0.0465662   -0.0045850   -0.0054411    0.4603030    0.0300855   -0.8872519
   0.0451705   -0.0056969   -0.0045742   -0.9811894   -0.0032057   -0.1930210
   0.0453063   -0.0056574   -0.0050377   -0.8634239   -0.0220352   -0.5039976
   0.0451459   -0.0058395   -0.0040298   -0.9999812   -0.0039780    0.0046578
   0.0460590   -0.0057009   -0.0055533    0.0746581   -0.1283260   -0.9889179
   0.0458062   -0.0053307   -0.0056453   -0.3928905   -0.0853423   -0.9156166
   0.0466758   -0.0057168   -0.0054001    0.3557421   -0.0230630   -0.9342996
   0.0471260   -0.0057509   -0.0051692    0.5415002    0.0223429   -0.8404037
   0.0457729   -0.0057536   -0.0054893   -0.5102616   -0.1539045   -0.8461363
   0.0473036   -0.0040682   -0.0048503    0.7371473    0.1331089   -0.6624922
   0.0474977   -0.0032277   -0.0043603    0.8245660    0.1856194   -0.5344495
   0.0474853   -0.0024151   -0.0040073    0.8674217    0.2305981   -0.4409129
   0.0474238   -0.0017656   -0.0037508    0.9184316    0.2436340   -0.3116502
   0.0473248   -0.0051377   -0.0049787    0.6698618    0.0729923   -0.7388892
   0.0476197   -0.0047452   -0.0046075    0.7809824    0.1136007   -0.6141346
   0.0450585   -0.0070257   -0.0043308   -0.9978760    0.0613910   -0.0217854
   0.0451707   -0.0069233   -0.0035163   -0.9810385    0.0405536    0.1895229
   0.0454421   -0.0070248   -0.0024257   -0.9288973   -0.0465084    0.3674054
   0.0469214   -0.0067471   -0.0019171    0.3712067    0.1766414    0.9115939
   0.0458878   -0.0068681   -0.0017878   -0.4624133    0.0848766    0.8825927
   0.0464991   -0.0074795   -0.0016983    0.1278799    0.1385056    0.9820707
   0.0481205   -0.0056752   -0.0032674    0.9499501    0.1447968    0.2768188
   0.0475424   -0.0066524   -0.0022785    0.6113267    0.1768857    0.7713567
   0.0480551   -0.0065220   -0.0028772    0.8302394    0.1593083    0.5341567
   0.0477977   -0.0032420   -0.0033072    0.9523922    0.1532417    0.2635643
   0.0479491   -0.0040330   -0.0034309    0.9783205    0.1442351    0.1486111
   0.0480601   -0.0049661   -0.0036714    0.9879305    0.1076348   -0.1113912
   0.0479197   -0.0039436   -0.0036747    0.9749540    0.1609232   -0.1535199
   0.0476250   -0.0024814   -0.0032072    0.9249762    0.2351159    0.2985626
   0.0476103   -0.0022602   -0.0034680    0.9609559    0.2614707    0.0905369
   0.0452450   -0.0060928   -0.0048663   -0.9280403    0.0456874   -0.3696673
   0.0451210   -0.0064737   -0.0044645   -0.9865254    0.0729054   -0.1464665
   0.0454951   -0.0061712   -0.0052552   -0.6419378   -0.0257056   -0.7663257
   0.0464851   -0.0064419   -0.0054227    0.2350139   -0.0984915   -0.9669891
   0.0459746   -0.0063364   -0.0054734   -0.1715823   -0.1326398   -0.9761999
   0.0470595   -0.0063329   -0.0051998    0.4791031   -0.0422009   -0.8767436
   0.0476385   -0.0066027   -0.0047763    0.6917643   -0.0010932   -0.7221226
   0.0477435   -0.0058187   -0.0046231    0.7856607    0.0657577   -0.6151530
   0.0476825   -0.0036873   -0.0042101    0.8747380    0.1702455   -0.4537068
   0.0476282   -0.0024486   -0.0036807    0.9570323    0.1992501   -0.2106862
   0.0478749   -0.0052752   -0.0043294    0.8445616    0.0967407   -0.5266469
   0.0479143   -0.0046617   -0.0040693    0.9183216    0.1388526   -0.3706824
   0.0451347   -0.0066949   -0.0046628   -0.9542111    0.0766086   -0.2891579
