NORM_ASCII
690 1376
   0.0088001    0.0012230   -0.0018669   -0.1891997    0.6743391   -0.7137718
   0.0096976    0.0016147   -0.0018426   -0.2472866    0.6126744   -0.7506527
   0.0096004    0.0019944   -0.0014065   -0.3134821    0.8026682   -0.5073980
   0.0089205    0.0019114   -0.0010883   -0.3387386    0.8408249   -0.4222200
   0.0088582    0.0021165   -0.0004472   -0.3226968    0.9273920   -0.1892378
   0.0085559    0.0008420   -0.0021512   -0.0005483    0.6176401   -0.7864606
   0.0082193    0.0019275    0.0001388   -0.2769668    0.9540858    0.1140600
   0.0070773    0.0009219   -0.0033530    0.4927307    0.8275430    0.2690521
   0.0071165    0.0010263   -0.0036347    0.5617229    0.6961847    0.4469836
   0.0067849    0.0014810   -0.0038435    0.3733156    0.8270645   -0.4202377
   0.0060524    0.0021729   -0.0036276    0.2300679    0.6761498   -0.6999216
   0.0020783    0.0039053    0.0000433    0.4802496    0.7034156    0.5239913
   0.0028586    0.0024976    0.0013938    0.4436694    0.7044737    0.5539623
   0.0012059    0.0047537   -0.0001057    0.4559343    0.5816984    0.6736104
   0.0007594    0.0046417    0.0002845    0.5058163    0.6230129    0.5966613
   0.0013346    0.0039411    0.0006307    0.4714523    0.6843781    0.5562008
  -0.0018441    0.0049672   -0.0003457   -0.9295805    0.2885598   -0.2293759
   0.0003293    0.0051066    0.0002073    0.4460267    0.7992246    0.4028650
   0.0007594    0.0046417    0.0002845    0.4383508    0.6059743    0.6638099
  -0.0005352    0.0020976   -0.0024643   -0.6379039    0.3277684   -0.6968834
  -0.0007609    0.0030066   -0.0019306   -0.9402572   -0.1237561   -0.3171763
   0.0083892    0.0015753    0.0009575   -0.1003331    0.7262405    0.6800794
   0.0014444    0.0028557    0.0019690    0.4381696    0.6346342    0.6365900
   0.0015579    0.0024318    0.0022937    0.4044164    0.5711321    0.7143217
   0.0024101    0.0018470    0.0022990    0.3634170    0.5248805    0.7696938
   0.0033749    0.0011708    0.0023312    0.3080548    0.5044498    0.8066181
   0.0044928    0.0008686    0.0021503    0.2331513    0.5210457    0.8210675
   0.0058614    0.0006776    0.0019738    0.1937218    0.4668655    0.8628490
   0.0069669    0.0004629    0.0018189    0.1977377    0.3551055    0.9136739
   0.0072748    0.0008851    0.0015441    0.1427750    0.4646880    0.8738881
   0.0084143    0.0011739    0.0012643   -0.0123872    0.5330654    0.8459834
   0.0084617    0.0007974    0.0014483    0.0403726    0.4000729    0.9155937
   0.0083282    0.0017955    0.0006481   -0.1928929    0.8732862    0.4473964
   0.0085819    0.0004504   -0.0023565    0.0962527    0.3845523   -0.9180713
   0.0080309    0.0002335   -0.0025755    0.5614188    0.2440385   -0.7907301
   0.0075472    0.0002122   -0.0036603    0.9533047   -0.2534122   -0.1642934
   0.0075905   -0.0000958   -0.0031548    0.8302134   -0.3696826   -0.4172295
   0.0074520    0.0008454   -0.0037961    0.7941739    0.5554323    0.2465417
   0.0075632    0.0003947   -0.0039885    0.9895301   -0.1441563    0.0070157
   0.0078434   -0.0003040   -0.0027154    0.5570495   -0.2352112   -0.7964744
   0.0089703    0.0008744   -0.0021831   -0.1413718    0.5127689   -0.8468070
   0.0107379    0.0022605   -0.0016255   -0.3026177    0.7264552   -0.6169970
   0.0115047    0.0018466   -0.0021518   -0.1927161    0.4395121   -0.8773196
   0.0102567    0.0013496   -0.0021582   -0.1482821    0.4204918   -0.8950972
   0.0115385    0.0022331   -0.0019598   -0.2398588    0.5260945   -0.8158997
   0.0106624    0.0025456   -0.0011303   -0.3201460    0.8598027   -0.3978013
   0.0097925    0.0023544   -0.0008407   -0.3172575    0.9256599   -0.2061588
   0.0093131    0.0022676   -0.0001299   -0.2658085    0.9576114    0.1110232
   0.0087715    0.0020441    0.0002939   -0.2331643    0.9328652    0.2745851
   0.0071719    0.0013145   -0.0040909    0.0410792    0.6907588   -0.7219175
   0.0072648   -0.0002617   -0.0043224    0.0064803   -0.2251158   -0.9743105
   0.0069336   -0.0006057   -0.0042484    0.5227904   -0.5641904   -0.6390457
   0.0064939   -0.0009267   -0.0042911    0.3180094   -0.3659557   -0.8746122
  -0.0003815    0.0013417   -0.0030683   -0.7638689    0.0998729   -0.6375969
   0.0015895    0.0031377    0.0015342    0.4699089    0.7041427    0.5323238
   0.0007734    0.0043425    0.0006105    0.5151266    0.6830439    0.5177795
   0.0003560    0.0045383    0.0008123    0.6344229    0.6052195    0.4808502
  -0.0015769    0.0045787    0.0002101   -0.8176375   -0.5756151    0.0116738
  -0.0019521    0.0051098    0.0005303   -0.8275568    0.4929996    0.2685165
  -0.0014497    0.0044266   -0.0003865   -0.8203824   -0.5718119   -0.0019945
  -0.0000613    0.0049564    0.0009771    0.3096450    0.8879549    0.3400824
  -0.0009262    0.0035260   -0.0013234   -0.8529230   -0.5044248    0.1344543
  -0.0011392    0.0039597   -0.0007934   -0.8530564   -0.5206585    0.0347788
   0.0001467    0.0048212    0.0008218    0.7105621    0.5318716    0.4606670
  -0.0005454    0.0023143   -0.0017800   -0.9582834   -0.2802267    0.0562671
  -0.0003309    0.0014042   -0.0023491   -0.9579823   -0.2752368    0.0807126
  -0.0004076    0.0017896   -0.0019512   -0.9601137   -0.2714928    0.0668831
  -0.0007861    0.0031765   -0.0011314   -0.9425919   -0.3338019    0.0098420
  -0.0006181    0.0026418   -0.0011627   -0.9552615   -0.2952021    0.0181991
   0.0096976    0.0011549    0.0013644   -0.1448583    0.4541862    0.8790512
   0.0096808    0.0015367    0.0011547   -0.1843319    0.5557636    0.8106470
   0.0090881    0.0018761    0.0007232   -0.1591403    0.7849555    0.5987647
   0.0006538    0.0027691    0.0025710    0.4055406    0.5366720    0.7399460
   0.0000574    0.0034328    0.0023973    0.4251220    0.5546058    0.7153206
   0.0005518    0.0036103    0.0018864    0.5168639    0.6212317    0.5890016
   0.0006131    0.0023384    0.0028500    0.3733073    0.4596342    0.8058400
   0.0001952    0.0020702    0.0031460    0.3026885    0.3272938    0.8951304
   0.0019568    0.0015984    0.0026426    0.3282613    0.4223682    0.8448962
   0.0032179    0.0008682    0.0025333    0.2609061    0.3742281    0.8898772
   0.0045453    0.0005511    0.0023177    0.2272517    0.4177431    0.8796859
   0.0055487    0.0003162    0.0021874    0.2156972    0.3210087    0.9221866
   0.0062660    0.0001398    0.0020747    0.2270492    0.1802314    0.9570608
   0.0072392   -0.0000953    0.0018686    0.1904741    0.0935591    0.9772238
   0.0078446    0.0002845    0.0017006    0.1281295    0.2389876    0.9625320
   0.0096064    0.0008013    0.0015103   -0.1220980    0.3386710    0.9329491
   0.0089327    0.0003294    0.0015914   -0.0202652    0.2241011    0.9743552
   0.0092719    0.0007649   -0.0022659   -0.0597623    0.3254471   -0.9436698
   0.0085065    0.0000472   -0.0024972    0.1475409    0.1790461   -0.9727149
   0.0072861   -0.0002485   -0.0037446    0.8245953   -0.5537633   -0.1157100
   0.0073469   -0.0005856   -0.0030167    0.6486179   -0.5602518   -0.5151823
   0.0070157   -0.0005847   -0.0036216    0.6870413   -0.6928520   -0.2189303
   0.0074850    0.0009928   -0.0042741    0.1401012    0.4658961   -0.8736776
   0.0076126    0.0007303   -0.0043560    0.8126185    0.2299945   -0.5354939
   0.0073916   -0.0000748   -0.0043481    0.8417639   -0.4467148   -0.3031162
   0.0075817    0.0003773   -0.0043783    0.1194340   -0.0389497   -0.9920778
   0.0073320   -0.0008703   -0.0027735    0.4733538   -0.4954546   -0.7283275
   0.0084580   -0.0003923   -0.0025117    0.1750604   -0.0845784   -0.9809181
   0.0078177   -0.0008266   -0.0025708    0.2596194   -0.2805279   -0.9240681
   0.0116647    0.0025275   -0.0017960   -0.3212796    0.6923997   -0.6460357
   0.0119001    0.0029232   -0.0013329   -0.2972935    0.8754503   -0.3810557
   0.0110438    0.0011672   -0.0023482   -0.1409906    0.3064808   -0.9413773
   0.0123148    0.0019266   -0.0023002   -0.2410812    0.3909205   -0.8882911
   0.0097327    0.0007538   -0.0023125   -0.1055794    0.2743631   -0.9558127
   0.0125954    0.0028395   -0.0018758   -0.2515441    0.6666359   -0.7016567
   0.0106760    0.0027010   -0.0006382   -0.3188256    0.9409662   -0.1137224
   0.0114960    0.0028947   -0.0010472   -0.2744255    0.9414594   -0.1958183
   0.0099695    0.0024276   -0.0000102   -0.2946267    0.9410260    0.1663282
   0.0097263    0.0021719    0.0004826   -0.2393142    0.8636527    0.4436583
   0.0066609   -0.0008539   -0.0037579    0.5735838   -0.7981562   -0.1842504
   0.0057182   -0.0014181   -0.0040754    0.4006194   -0.8017875   -0.4434420
   0.0011474   -0.0018016   -0.0049914   -0.4205625   -0.4663273   -0.7782455
  -0.0001409    0.0006962   -0.0026017   -0.9514672   -0.2981339    0.0763309
  -0.0002261    0.0007884   -0.0031927   -0.9603989   -0.2766184   -0.0334108
   0.0002747   -0.0006353   -0.0042068   -0.9187469   -0.2913233   -0.2665237
   0.0001285   -0.0002639   -0.0035679   -0.9476125   -0.3027896   -0.1017301
  -0.0000816    0.0003300   -0.0033497   -0.9554299   -0.2671362   -0.1256659
   0.0006378    0.0038254    0.0015292    0.5642090    0.6658588    0.4881601
  -0.0000377    0.0046754    0.0012722    0.6485167    0.5908907    0.4798691
  -0.0014650    0.0044812    0.0007915   -0.8487981   -0.5129606    0.1281137
  -0.0012392    0.0040791    0.0002740   -0.8598584   -0.5105011    0.0056743
  -0.0014840    0.0048375    0.0013660   -0.8971282   -0.0519107    0.4387097
  -0.0010807    0.0046288    0.0018328   -0.2110199    0.7987280    0.5634752
  -0.0004141    0.0047329    0.0016028    0.3943256    0.7195046    0.5716821
  -0.0009094    0.0034888   -0.0007639   -0.9207872   -0.3898920   -0.0116245
  -0.0009702    0.0035972   -0.0001089   -0.9115567   -0.4106417   -0.0209229
  -0.0004259    0.0019584   -0.0014386   -0.9608622   -0.2741755    0.0396434
  -0.0002326    0.0012083   -0.0017876   -0.9603919   -0.2734900    0.0533910
  -0.0007647    0.0030777   -0.0004276   -0.9460237   -0.3231138   -0.0252319
  -0.0004710    0.0021667   -0.0009267   -0.9610839   -0.2762349    0.0034567
  -0.0005844    0.0025336   -0.0005243   -0.9558144   -0.2927226   -0.0270608
   0.0111278    0.0009808    0.0017623   -0.1865419    0.3535427    0.9166295
   0.0113688    0.0014399    0.0016385   -0.1509872    0.3910057    0.9079193
   0.0109945    0.0017515    0.0013876   -0.2043812    0.5367009    0.8186455
   0.0098403    0.0018691    0.0009386   -0.2315146    0.6813493    0.6943804
  -0.0003029    0.0027912    0.0029968    0.2983370    0.4888434    0.8197727
   0.0000206    0.0039877    0.0019976    0.4969053    0.5781651    0.6471555
  -0.0004401    0.0043899    0.0019619    0.3162688    0.5943011    0.7394459
  -0.0008317    0.0025414    0.0032778    0.0619034    0.4887639    0.8702171
  -0.0006955    0.0018373    0.0034228    0.1275927    0.1238443    0.9840644
  -0.0001649    0.0014538    0.0033918    0.1912431    0.1499809    0.9700164
   0.0005885    0.0014948    0.0031766    0.2794750    0.2137267    0.9360634
   0.0015420    0.0013328    0.0029042    0.3043249    0.2891040    0.9076372
   0.0022920    0.0007262    0.0028245    0.2545241    0.2101115    0.9439654
   0.0032649    0.0004875    0.0026641    0.2045877    0.2551045    0.9450215
   0.0052204    0.0000063    0.0023668    0.2331369    0.2619468    0.9364994
   0.0061623   -0.0002424    0.0021461    0.2653391    0.0400656    0.9633223
   0.0071946   -0.0006057    0.0018647    0.1895377   -0.1112855    0.9755465
   0.0082019   -0.0003362    0.0017207    0.1112512   -0.0083977    0.9937568
   0.0088394   -0.0000489    0.0016606    0.0248431    0.0776368    0.9966721
   0.0112939    0.0005847    0.0019285   -0.1187820    0.2222109    0.9677361
   0.0097627    0.0002930    0.0016849   -0.1594224    0.1368785    0.9776752
   0.0096333   -0.0001528    0.0017097   -0.1007332    0.0203896    0.9947045
   0.0094258   -0.0000007   -0.0024571   -0.0172980    0.0790040   -0.9967242
   0.0069800   -0.0008788   -0.0030753    0.5590774   -0.6986521   -0.4464502
   0.0075306   -0.0012397   -0.0024886    0.2874383   -0.4455222   -0.8478733
   0.0065806   -0.0014273   -0.0027601    0.3688139   -0.6707944   -0.6434370
   0.0085712   -0.0007045   -0.0024706    0.0927102   -0.1805338   -0.9791897
   0.0080325   -0.0011252   -0.0024298    0.1627835   -0.3596639   -0.9187728
   0.0122010    0.0029210   -0.0016001   -0.2696189    0.8705136   -0.4117181
   0.0124193    0.0031210   -0.0008512   -0.1710055    0.9805192   -0.0966391
   0.0124513    0.0011922   -0.0025494   -0.1753752    0.2158056   -0.9605579
   0.0101532    0.0001667   -0.0024982   -0.1132509    0.1514019   -0.9819632
   0.0114771    0.0003832   -0.0026085   -0.1133897    0.1629774   -0.9800924
   0.0134951    0.0016491   -0.0027268   -0.2286098    0.2310408   -0.9457049
   0.0128759    0.0026036   -0.0021774   -0.2703634    0.5240044   -0.8076652
   0.0128177    0.0030857   -0.0015671   -0.1449947    0.9414935   -0.3042474
   0.0133112    0.0029895   -0.0019046   -0.1464901    0.8061847   -0.5732424
   0.0113976    0.0029166   -0.0003947   -0.2499304    0.9674965    0.0385408
   0.0113903    0.0028336    0.0001076   -0.2069548    0.9375631    0.2795446
   0.0111712    0.0026237    0.0005119   -0.2320011    0.8741956    0.4265649
   0.0109462    0.0023468    0.0008372   -0.2167258    0.7746855    0.5940474
   0.0061505   -0.0012951   -0.0033336    0.4518949   -0.8323131   -0.3210076
   0.0050518   -0.0018068   -0.0036251    0.3828865   -0.9103541   -0.1570139
   0.0043883   -0.0020467   -0.0038728    0.2705216   -0.9360025   -0.2252053
   0.0016665   -0.0021787   -0.0047380    0.0014276   -0.8762106   -0.4819263
   0.0013866   -0.0021645   -0.0042478   -0.4422685   -0.8568640   -0.2649200
   0.0010920   -0.0020903   -0.0038951   -0.6519043   -0.6978548   -0.2966807
   0.0006940   -0.0013955   -0.0043562   -0.8464685   -0.4976919   -0.1891926
   0.0000090    0.0003560   -0.0018760   -0.9604951   -0.2762749    0.0334876
   0.0001611   -0.0002357   -0.0026665   -0.9469683   -0.3195816    0.0334458
   0.0003897   -0.0009043   -0.0032369   -0.9314389   -0.3638855   -0.0029694
   0.0005755   -0.0013155   -0.0036493   -0.9031217   -0.4240517   -0.0674634
  -0.0011383    0.0039699    0.0013467   -0.9290977   -0.3607869    0.0813040
  -0.0010064    0.0036422    0.0006440   -0.9198479   -0.3920157   -0.0142643
  -0.0011616    0.0042771    0.0018229   -0.9291231   -0.0676216    0.3635349
  -0.0009579    0.0037380    0.0025615   -0.8009087    0.3308235    0.4991003
  -0.0007391    0.0045178    0.0019256    0.1159105    0.6840500    0.7201669
  -0.0008493    0.0032575    0.0003419   -0.9442005   -0.3275369   -0.0347146
  -0.0003005    0.0015444   -0.0010969   -0.9645931   -0.2636116    0.0083148
  -0.0001194    0.0008722   -0.0013349   -0.9642008   -0.2648560    0.0129692
  -0.0006369    0.0025531    0.0002853   -0.9601807   -0.2700635   -0.0715459
  -0.0004228    0.0019594   -0.0004716   -0.9637980   -0.2639638   -0.0376373
   0.0122136    0.0007699    0.0019265   -0.0416320    0.2200897    0.9745908
   0.0126803    0.0015152    0.0017378   -0.0543077    0.3586052    0.9319082
   0.0121093    0.0018731    0.0015176   -0.1062545    0.5356072    0.8377559
   0.0110206    0.0020503    0.0011816   -0.1962607    0.6391247    0.7436406
  -0.0012854    0.0032062    0.0029984   -0.8386747    0.3624244    0.4065381
  -0.0015041    0.0024282    0.0034239   -0.3732300    0.7346798    0.5665201
  -0.0012443    0.0024139    0.0031220   -0.9151425    0.2794746   -0.2905309
  -0.0006657    0.0010884    0.0034605    0.0114470   -0.0064097    0.9999139
  -0.0014730    0.0015215    0.0034466   -0.8181634   -0.3791603    0.4322571
  -0.0016147    0.0019666    0.0034883   -0.9969151    0.0341418    0.0706723
   0.0003070    0.0009275    0.0033634    0.1923083    0.1121098    0.9749097
   0.0012068    0.0003691    0.0032110    0.2482885    0.0915335    0.9643518
   0.0022641    0.0001778    0.0029259    0.2355417    0.1045969    0.9662192
   0.0028662   -0.0000537    0.0028324    0.1710200    0.1092805    0.9791884
   0.0041627   -0.0001512    0.0026374    0.1998855    0.1389149    0.9699219
   0.0051371   -0.0003717    0.0024465    0.2543839    0.0427560    0.9661577
   0.0054997   -0.0008173    0.0023077    0.2906827   -0.2392121    0.9264347
   0.0064553   -0.0009094    0.0019696    0.2262941   -0.2817726    0.9324136
   0.0084172   -0.0012033    0.0015299    0.1169193   -0.3639245    0.9240611
   0.0085570   -0.0008669    0.0016107    0.0733678   -0.2448035    0.9667928
   0.0074519   -0.0009919    0.0017357    0.1663014   -0.2822443    0.9448185
   0.0092180   -0.0005403    0.0016528   -0.0223386   -0.1235270    0.9920897
   0.0123757    0.0003287    0.0019924    0.0295196    0.0363933    0.9989015
   0.0117493    0.0000524    0.0020249   -0.0332744   -0.0129316    0.9993626
   0.0108521    0.0001239    0.0019178   -0.1598627    0.0332876    0.9865778
   0.0111140   -0.0003252    0.0019392   -0.1099734   -0.1191166    0.9867710
   0.0099777   -0.0006920    0.0017034   -0.1202814   -0.2147685    0.9692301
   0.0092492   -0.0011016   -0.0024240   -0.0485238   -0.2074782   -0.9770354
   0.0101728   -0.0007564   -0.0025336   -0.1005236   -0.1024636   -0.9896445
   0.0073151   -0.0017522   -0.0022418    0.1860344   -0.5113423   -0.8389996
   0.0058243   -0.0020410   -0.0024663    0.2421667   -0.7142477   -0.6566624
   0.0062599   -0.0014217   -0.0029814    0.3507167   -0.7974465   -0.4909957
   0.0083393   -0.0015197   -0.0022480    0.0346395   -0.3664923   -0.9297761
   0.0121131    0.0030631   -0.0003153   -0.1315329    0.9804563    0.1463028
   0.0129247    0.0031612   -0.0006476   -0.0308341    0.9989366    0.0342765
   0.0133081    0.0006589   -0.0028110   -0.1465069    0.1123798   -0.9828054
   0.0124498    0.0000275   -0.0027697   -0.1200716    0.0854522   -0.9890808
   0.0106164   -0.0002751   -0.0025987   -0.1221901    0.0564347   -0.9909010
   0.0117935   -0.0005899   -0.0027320   -0.0994189   -0.0695099   -0.9926149
   0.0136519    0.0022947   -0.0025885   -0.1709216    0.3846667   -0.9070928
   0.0141981    0.0016526   -0.0028233   -0.0689764    0.1323743   -0.9887969
   0.0137872    0.0026928   -0.0023453   -0.1275620    0.6268357   -0.7686384
   0.0136250    0.0031341   -0.0016566    0.0084413    0.9780533   -0.2081837
   0.0141104    0.0029450   -0.0021236   -0.0374554    0.8310739   -0.5548994
   0.0121864    0.0027540    0.0006087   -0.0994030    0.8719060    0.4794779
   0.0123039    0.0029492    0.0001933   -0.0882668    0.9386448    0.3333991
   0.0120536    0.0023839    0.0011060   -0.1191626    0.7232977    0.6801770
   0.0056333   -0.0016995   -0.0030254    0.3590566   -0.8380698   -0.4107523
   0.0049400   -0.0019368   -0.0031077    0.2738650   -0.9237444   -0.2677580
   0.0045231   -0.0019972   -0.0035041    0.2445410   -0.9676836   -0.0615475
   0.0034200   -0.0022150   -0.0038105    0.1681412   -0.9723764   -0.1619031
   0.0017122   -0.0023446   -0.0040449   -0.0943031   -0.9651289   -0.2441988
   0.0025392   -0.0023000   -0.0040993    0.1125015   -0.9718336   -0.2070816
   0.0014050   -0.0024139   -0.0036030   -0.2334014   -0.8958275   -0.3781757
   0.0008379   -0.0018855   -0.0034944   -0.8708899   -0.4660550   -0.1560243
   0.0011609   -0.0029084   -0.0026904   -0.5270416   -0.7330528   -0.4299544
   0.0000196    0.0003564   -0.0012543   -0.9674228   -0.2528031   -0.0135544
   0.0002275   -0.0004174   -0.0016138   -0.9650116   -0.2607475   -0.0276269
   0.0004505   -0.0010919   -0.0023688   -0.9498166   -0.3106865   -0.0363631
   0.0006892   -0.0017149   -0.0028173   -0.9322157   -0.3526601   -0.0812701
  -0.0008814    0.0032355    0.0011478   -0.9621458   -0.2687877   -0.0450393
  -0.0009663    0.0035262    0.0017886   -0.9727309   -0.2303567    0.0270262
  -0.0010098    0.0030295    0.0024735   -0.9410153    0.0158579   -0.3379922
  -0.0009031    0.0031017    0.0019391   -0.9887480   -0.1015002   -0.1098868
  -0.0001760    0.0010522   -0.0007012   -0.9679948   -0.2480668   -0.0380647
  -0.0007113    0.0023677    0.0013344   -0.9709311   -0.1815906   -0.1559409
  -0.0004968    0.0019054    0.0006357   -0.9627651   -0.2380618   -0.1281013
  -0.0003696    0.0016503    0.0000296   -0.9657990   -0.2474399   -0.0774976
   0.0130028    0.0006117    0.0019569    0.0425175    0.0552203    0.9975685
   0.0131396    0.0010282    0.0019013    0.0132366    0.1965161    0.9804113
   0.0134787    0.0014619    0.0017743    0.0636651    0.3450352    0.9364280
   0.0133174    0.0019131    0.0015713    0.0344137    0.5159932    0.8559011
   0.0130449    0.0022402    0.0013311   -0.0284304    0.6541502    0.7558302
  -0.0010599    0.0024573    0.0026199   -0.9268870   -0.0397169   -0.3732333
  -0.0011721    0.0018625    0.0029008   -0.8761761   -0.0541789   -0.4789365
   0.0002161    0.0005545    0.0034079    0.1269868    0.0213163    0.9916753
  -0.0002208    0.0000004    0.0034072    0.0069131   -0.1708977    0.9852645
  -0.0006925    0.0001394    0.0034059   -0.7198934   -0.2983708    0.6266805
  -0.0009567    0.0008833    0.0034021   -0.4441510   -0.2689512    0.8546316
  -0.0009958    0.0007801    0.0032862   -0.8348431   -0.4742158    0.2795646
  -0.0008646    0.0005936    0.0029261   -0.9188567   -0.3532035   -0.1759249
  -0.0009604    0.0011847    0.0026774   -0.8964812   -0.2010278   -0.3948534
   0.0005956    0.0000267    0.0033508    0.1536257   -0.0665635    0.9858846
   0.0019863   -0.0004733    0.0030190    0.1951105   -0.0157652    0.9806546
   0.0034349   -0.0008964    0.0027815    0.1564072   -0.1456116    0.9769002
   0.0040529   -0.0006030    0.0027083    0.2570836   -0.0236268    0.9661003
   0.0047524   -0.0007538    0.0025403    0.2413469   -0.0834218    0.9668467
   0.0042716   -0.0013153    0.0025117    0.2787817   -0.3134496    0.9077610
   0.0052258   -0.0014240    0.0021262    0.2798468   -0.5301191    0.8004121
   0.0058262   -0.0012158    0.0020382    0.2432035   -0.4286217    0.8701353
   0.0067169   -0.0014756    0.0016924    0.1951998   -0.4232427    0.8847387
   0.0082692   -0.0015175    0.0013972    0.1533738   -0.4196139    0.8946512
   0.0076739   -0.0016670    0.0014180    0.1500643   -0.5069243    0.8488277
   0.0093534   -0.0015166    0.0013240    0.0176517   -0.4726672    0.8810642
   0.0086564   -0.0017958    0.0011720    0.0904569   -0.5619848    0.8221865
   0.0095420   -0.0010826    0.0015384   -0.0511689   -0.3605188    0.9313474
   0.0130361   -0.0001548    0.0019033    0.1154316   -0.2600020    0.9586837
   0.0131696    0.0002240    0.0019536    0.0908393   -0.1144093    0.9892718
   0.0124338   -0.0001548    0.0019719    0.0946133   -0.1958125    0.9760665
   0.0118089   -0.0004133    0.0019629    0.0091402   -0.2273065    0.9737804
   0.0117765   -0.0007840    0.0018385    0.0649844   -0.4063414    0.9114075
   0.0111868   -0.0006396    0.0018838   -0.0469823   -0.3523706    0.9346805
   0.0104485   -0.0010475    0.0016398   -0.0931672   -0.4165228    0.9043388
   0.0099202   -0.0013482   -0.0023919   -0.0630588   -0.3263671   -0.9431374
   0.0095014   -0.0018907   -0.0021339   -0.0298169   -0.4601383   -0.8873464
   0.0115454   -0.0011302   -0.0026034   -0.0767546   -0.3402862   -0.9371841
   0.0107209   -0.0013756   -0.0024448   -0.0372326   -0.4509981   -0.8917480
   0.0079673   -0.0022146   -0.0018990    0.0499265   -0.5250124   -0.8496290
   0.0068013   -0.0024615   -0.0019024    0.1318723   -0.6053106   -0.7849896
   0.0053964   -0.0026863   -0.0019064    0.0877289   -0.7470840   -0.6589151
   0.0050751   -0.0023430   -0.0023286    0.1707585   -0.7655665   -0.6202817
   0.0049724   -0.0021406   -0.0026613    0.2307150   -0.8301977   -0.5074863
   0.0130177    0.0030770   -0.0001048   -0.0116258    0.9598682    0.2802103
   0.0140255    0.0031225   -0.0007626    0.0950436    0.9922722    0.0797663
   0.0133314   -0.0002213   -0.0028775   -0.0337047   -0.0157709   -0.9993074
   0.0131882   -0.0007115   -0.0028425   -0.0371745   -0.1281205   -0.9910617
   0.0132530   -0.0011181   -0.0027335   -0.0065689   -0.3757738   -0.9266881
   0.0146509    0.0022393   -0.0026927   -0.0435307    0.3654323   -0.9298195
   0.0153012    0.0016407   -0.0028404   -0.0682973    0.2098857   -0.9753376
   0.0150389    0.0009365   -0.0028889   -0.0752482    0.0178905   -0.9970043
   0.0145877    0.0003698   -0.0028721   -0.0049841   -0.0253872   -0.9996653
   0.0148851    0.0026209   -0.0025131    0.0064923    0.6519565   -0.7582286
   0.0144156    0.0029914   -0.0019580    0.0807428    0.9533465   -0.2908797
   0.0148201    0.0030262   -0.0013813    0.1170505    0.9925521   -0.0337554
   0.0147003    0.0028041   -0.0023193    0.0723647    0.8415196   -0.5353579
   0.0130761    0.0025966    0.0009546   -0.0285308    0.8249079    0.5645467
   0.0037499   -0.0023449   -0.0028146    0.2593012   -0.8643550   -0.4308751
   0.0040391   -0.0021367   -0.0031769    0.2335329   -0.9489475   -0.2120401
   0.0033862   -0.0022568   -0.0033814    0.2296931   -0.9417451   -0.2456772
   0.0027494   -0.0023073   -0.0035417    0.1156437   -0.9654516   -0.2335160
   0.0018980   -0.0024009   -0.0036953    0.1198280   -0.9695241   -0.2136918
   0.0017124   -0.0025719   -0.0031560    0.0805865   -0.9289484   -0.3613319
   0.0022701   -0.0026222   -0.0029677    0.2049861   -0.8026497   -0.5601198
   0.0018045   -0.0033541   -0.0019798   -0.0008295   -0.8933862   -0.4492888
   0.0008096   -0.0027932   -0.0017145   -0.9162935   -0.1805241   -0.3575155
   0.0012107   -0.0032571   -0.0021111   -0.4853426   -0.6323543   -0.6037968
   0.0007073   -0.0021160   -0.0019035   -0.9551753   -0.2344829   -0.1807150
   0.0000457    0.0001543   -0.0007433   -0.9716562   -0.2258777   -0.0697388
   0.0004713   -0.0013591   -0.0015394   -0.9654333   -0.2380562   -0.1061494
   0.0002377   -0.0006797   -0.0007807   -0.9723046   -0.2076270   -0.1073072
   0.0006057   -0.0016137   -0.0021879   -0.9566381   -0.2785234   -0.0852543
  -0.0008819    0.0025409    0.0021105   -0.9641933   -0.0784037   -0.2533460
  -0.0001638    0.0008357   -0.0000858   -0.9712279   -0.2197039   -0.0919050
  -0.0007571    0.0015919    0.0020056   -0.9402722   -0.1335055   -0.3131526
  -0.0004382    0.0013482    0.0010025   -0.9579254   -0.1976437   -0.2081245
  -0.0003325    0.0013394    0.0004186   -0.9662835   -0.2221790   -0.1301260
   0.0137971    0.0005119    0.0019268    0.1287858    0.0092640    0.9916292
   0.0138556    0.0000332    0.0018599    0.1611823   -0.2336442    0.9588695
   0.0139366    0.0009584    0.0018682    0.1676914    0.2138840    0.9623581
   0.0141027    0.0017096    0.0015677    0.2214184    0.4667118    0.8562441
   0.0135602    0.0023933    0.0011728    0.1038047    0.7048785    0.7016914
   0.0004565   -0.0003470    0.0033093    0.0604855   -0.2364303    0.9697640
   0.0003883   -0.0008053    0.0031499   -0.0337628   -0.3894202    0.9204412
  -0.0005232   -0.0006562    0.0031949   -0.4707933   -0.3847287    0.7939380
  -0.0005585   -0.0003944    0.0026554   -0.9817330   -0.1403467   -0.1284645
  -0.0005673    0.0003431    0.0021035   -0.9438494   -0.1786550   -0.2779042
   0.0017109   -0.0008676    0.0030478    0.1460160   -0.1604253    0.9761880
   0.0030085   -0.0012957    0.0027857    0.1597644   -0.2089198    0.9647942
   0.0034751   -0.0014702    0.0026491    0.2067621   -0.3187695    0.9250057
   0.0041312   -0.0010849    0.0026311    0.3087023   -0.1991959    0.9300666
   0.0032533   -0.0019395    0.0024790    0.2506629   -0.4964207    0.8311045
   0.0030856   -0.0022504    0.0023102    0.2445563   -0.6264387    0.7401127
   0.0037189   -0.0022398    0.0020479    0.3021558   -0.6888293    0.6589507
   0.0049243   -0.0020017    0.0017426    0.2256457   -0.6854728    0.6922508
   0.0058207   -0.0017377    0.0017292    0.1876529   -0.5946787    0.7817567
   0.0069252   -0.0018489    0.0014325    0.1598029   -0.5654703    0.8091393
   0.0079112   -0.0021679    0.0009746    0.1186556   -0.6759147    0.7273652
   0.0097042   -0.0018671    0.0010720    0.0333679   -0.6467359    0.7619838
   0.0104042   -0.0015539    0.0013274   -0.0123323   -0.5889141    0.8081015
   0.0089886   -0.0021299    0.0008658    0.0570217   -0.7008731    0.7110031
   0.0135884   -0.0007259    0.0015504    0.1584120   -0.5281728    0.8342297
   0.0137207   -0.0003618    0.0017400    0.1498604   -0.3726370    0.9157967
   0.0128003   -0.0005556    0.0017902    0.1434635   -0.4331598    0.8898263
   0.0125427   -0.0012056    0.0013854    0.1612396   -0.6466150    0.7455809
   0.0114283   -0.0013221    0.0014958    0.0527887   -0.5910507    0.8049052
   0.0109434   -0.0011268    0.0016455   -0.0169119   -0.5461128    0.8375409
   0.0102912   -0.0016975   -0.0022557    0.0077963   -0.5625787   -0.8267070
   0.0095614   -0.0022373   -0.0018760    0.0752966   -0.6894328   -0.7204255
   0.0130189   -0.0014984   -0.0025143   -0.0176430   -0.5681754   -0.8227183
   0.0119210   -0.0014271   -0.0024697   -0.0604989   -0.6200968   -0.7821891
   0.0118934   -0.0017427   -0.0021454   -0.0107306   -0.7610484   -0.6486063
   0.0110934   -0.0017076   -0.0022175    0.0353847   -0.6340581   -0.7724754
   0.0077973   -0.0025515   -0.0016805    0.0891671   -0.6755556   -0.7318974
   0.0064936   -0.0028807   -0.0015848    0.1035789   -0.6980227   -0.7085447
   0.0049132   -0.0030458   -0.0013998    0.0449590   -0.8870821   -0.4594171
   0.0048197   -0.0027382   -0.0019251    0.1486650   -0.8168996   -0.5572914
   0.0065403   -0.0031511   -0.0012736    0.0905382   -0.8592413   -0.5034951
   0.0041890   -0.0024897   -0.0024231    0.2235263   -0.7908552   -0.5697228
   0.0138199    0.0030668   -0.0002209    0.1078210    0.9675290    0.2286095
   0.0135000    0.0028533    0.0005202    0.0564725    0.8966784    0.4390658
   0.0153073    0.0028574   -0.0005261    0.1560946    0.9645916    0.2125968
   0.0141382   -0.0001795   -0.0028745    0.0599896   -0.1335937   -0.9892189
   0.0139698   -0.0009563   -0.0027496    0.1082818   -0.3055223   -0.9460080
   0.0139154   -0.0015783   -0.0023922    0.1293049   -0.6089070   -0.7826318
   0.0158508    0.0021855   -0.0027121   -0.0111292    0.4118910   -0.9111652
   0.0162217    0.0018360   -0.0028914    0.4492694    0.2663792   -0.8527597
   0.0159884    0.0014637   -0.0029627   -0.0660950    0.1374571   -0.9883000
   0.0163321    0.0008029   -0.0030228    0.4238757   -0.0455021   -0.9045767
   0.0156909    0.0003573   -0.0028891   -0.0413478   -0.1298535   -0.9906707
   0.0150456   -0.0001338   -0.0028112    0.0312815   -0.2019443   -0.9788973
   0.0157897    0.0026350   -0.0024605    0.0156792    0.7228097   -0.6908692
   0.0150120    0.0029247   -0.0020192    0.0836335    0.9335606   -0.3485254
   0.0160144    0.0029078   -0.0013473    0.7929437    0.6044187    0.0769309
   0.0028239   -0.0028326   -0.0026166    0.1868788   -0.8071074   -0.5600482
   0.0023518   -0.0024919   -0.0030316    0.3337926   -0.8365715   -0.4344314
   0.0023126   -0.0024811   -0.0032446    0.3029459   -0.9122324   -0.2757823
   0.0022855   -0.0032498   -0.0021472    0.0912943   -0.8472176   -0.5233428
   0.0014351   -0.0035612   -0.0013390   -0.0161867   -0.9649961   -0.2617644
   0.0023844   -0.0036105   -0.0012554    0.0769948   -0.9704329   -0.2287614
   0.0026466   -0.0034824   -0.0015683    0.1685941   -0.9176046   -0.3599693
   0.0006426   -0.0032222   -0.0013760   -0.8788131    0.2361890   -0.4146110
   0.0005464   -0.0028307   -0.0010243   -0.9396510    0.0538149   -0.3378755
   0.0005608   -0.0023670   -0.0010969   -0.9605983   -0.0778176   -0.2668244
   0.0007495   -0.0033659   -0.0019866   -0.5628627   -0.6616017   -0.4954480
   0.0005138   -0.0018606   -0.0011316   -0.9706871   -0.1459399   -0.1909662
   0.0000000    0.0000000    0.0000000   -0.9725246   -0.1849987   -0.1413200
   0.0003466   -0.0013623   -0.0006391   -0.9732787   -0.1487082   -0.1749700
   0.0001655   -0.0007933   -0.0001215   -0.9712284   -0.1562630   -0.1797146
  -0.0002155    0.0007723    0.0004676   -0.9685456   -0.1985795   -0.1499520
  -0.0003406    0.0005132    0.0012319   -0.9534676   -0.1565495   -0.2576662
  -0.0002743    0.0007428    0.0008357   -0.9608001   -0.1788360   -0.2118509
   0.0146218    0.0007586    0.0017235    0.3097324    0.0756660    0.9478083
   0.0144768    0.0002493    0.0017674    0.2873544   -0.1423987    0.9471800
   0.0146010   -0.0006262    0.0013747    0.2452973   -0.5416206    0.8040375
   0.0147310   -0.0002871    0.0015097    0.2660011   -0.3845360    0.8839545
   0.0147583    0.0011722    0.0015920    0.3340208    0.2853477    0.8983356
   0.0152949    0.0015681    0.0011877    0.3330178    0.4146621    0.8468497
   0.0158164    0.0017927    0.0008305    0.2870644    0.5362097    0.7937715
   0.0142427    0.0021628    0.0012301    0.2384753    0.5996798    0.7638806
   0.0143630    0.0023908    0.0009758    0.2575944    0.6963680    0.6698632
   0.0140849    0.0026534    0.0007327    0.1777756    0.8270598    0.5332616
   0.0016574   -0.0013639    0.0029385    0.0424227   -0.3260876    0.9443872
   0.0003059   -0.0012309    0.0029096   -0.0911031   -0.5268599    0.8450555
   0.0010304   -0.0015322    0.0028435   -0.0936545   -0.4763239    0.8742679
  -0.0005608   -0.0012579    0.0028139   -0.7662699   -0.4371076    0.4709217
  -0.0004179   -0.0011744    0.0022728   -0.9653358   -0.0377898   -0.2582610
  -0.0003390   -0.0007423    0.0018592   -0.9638372   -0.0939999   -0.2493628
  -0.0002550   -0.0003221    0.0013737   -0.9576661   -0.1227299   -0.2604095
   0.0023915   -0.0015786    0.0027988    0.1160679   -0.3012758    0.9464466
   0.0027287   -0.0019699    0.0026027    0.1630196   -0.4506449    0.8776923
   0.0022890   -0.0024058    0.0023706    0.0428880   -0.6750892    0.7364885
   0.0028944   -0.0027152    0.0019006    0.2131226   -0.7595285    0.6145691
   0.0043735   -0.0026755    0.0011821    0.2600199   -0.7695313    0.5832763
   0.0050339   -0.0024692    0.0012006    0.1514930   -0.7615241    0.6301833
   0.0057751   -0.0022583    0.0012745    0.1428469   -0.7063169    0.6933334
   0.0068420   -0.0022264    0.0011324    0.1287158   -0.7130580    0.6891883
   0.0088730   -0.0024180    0.0005706    0.0714843   -0.7785794    0.6234614
   0.0081699   -0.0025384    0.0005106    0.0986246   -0.8123034    0.5748360
   0.0102404   -0.0022781    0.0006394    0.0786349   -0.8005581    0.5940735
   0.0097103   -0.0022563    0.0007089    0.0691628   -0.7653771    0.6398550
   0.0113944   -0.0017086    0.0011394    0.0929544   -0.7209004    0.6867766
   0.0095263   -0.0025237    0.0003825    0.0766554   -0.8144141    0.5751988
   0.0139676   -0.0009812    0.0012563    0.2083252   -0.6861989    0.6969446
   0.0132087   -0.0016247    0.0007553    0.1937013   -0.7654091    0.6137009
   0.0125108   -0.0015702    0.0010231    0.1839994   -0.7441653    0.6421544
   0.0108738   -0.0019223   -0.0019984    0.0758947   -0.7707474   -0.6326045
   0.0111596   -0.0020976   -0.0016307    0.1459371   -0.8599301   -0.4891039
   0.0100274   -0.0024179   -0.0015793    0.1691050   -0.8293377   -0.5325434
   0.0089912   -0.0026738   -0.0014294    0.1155642   -0.8613923   -0.4946192
   0.0132996   -0.0017321   -0.0023068   -0.0133816   -0.7408729   -0.6715119
   0.0124732   -0.0019995   -0.0018731   -0.0625080   -0.8742166   -0.4814957
   0.0117686   -0.0020219   -0.0017127   -0.0068539   -0.8939868   -0.4480409
   0.0079654   -0.0028098   -0.0013907    0.1179654   -0.8430519   -0.5247358
   0.0044401   -0.0032907   -0.0008696    0.1214812   -0.9689867   -0.2151909
   0.0040148   -0.0032180   -0.0013275    0.1917866   -0.9096117   -0.3685438
   0.0050141   -0.0032703   -0.0008582   -0.0356802   -0.9639282   -0.2637602
   0.0057216   -0.0032145   -0.0011447   -0.0504125   -0.9215910   -0.3848747
   0.0038887   -0.0030534   -0.0017629    0.2294296   -0.8515477   -0.4714113
   0.0075939   -0.0030402   -0.0009928    0.1929728   -0.9678351   -0.1614209
   0.0066782   -0.0032952   -0.0006937    0.2582626   -0.9624104   -0.0840629
   0.0060108   -0.0033516   -0.0008499    0.0079666   -0.8814292   -0.4722490
   0.0030002   -0.0032261   -0.0019334    0.2274630   -0.8399889   -0.4926249
   0.0142038    0.0028660    0.0002651    0.1915770    0.9085260    0.3713204
   0.0159895    0.0026240   -0.0001696    0.3712122    0.8652358    0.3369992
   0.0158096    0.0028622   -0.0008467    0.4308550    0.8844662    0.1791185
   0.0154884    0.0026329    0.0000122    0.2007942    0.8962247    0.3955540
   0.0149024   -0.0006235   -0.0026883    0.1000653   -0.3596375   -0.9277111
   0.0151666   -0.0010449   -0.0024370    0.1727426   -0.5637140   -0.8077045
   0.0138884   -0.0018863   -0.0020604    0.1530322   -0.7860934   -0.5988641
   0.0162906    0.0026229   -0.0024686    0.6273598    0.5203956   -0.5793169
   0.0161530   -0.0000968   -0.0028183    0.1108728   -0.2785628   -0.9539968
   0.0164872   -0.0008667   -0.0024191    0.6046893   -0.3142502   -0.7318454
   0.0160117   -0.0005652   -0.0026501    0.0770203   -0.3854127   -0.9195243
   0.0162082    0.0028287   -0.0021537    0.3470795    0.8864862   -0.3060687
   0.0165247    0.0018567    0.0006175    0.6112091    0.6108940    0.5032215
   0.0165060    0.0004950   -0.0009008    0.9552573    0.1768577   -0.2370756
   0.0009892   -0.0036094   -0.0009454   -0.0211619   -0.9971329   -0.0726511
   0.0008649   -0.0035380   -0.0013818   -0.1314149   -0.9559060   -0.2626289
   0.0021141   -0.0037163   -0.0005994   -0.0001369   -0.9980307   -0.0627268
   0.0027712   -0.0036643   -0.0005179    0.1591059   -0.9864194   -0.0407690
   0.0038599   -0.0033829   -0.0009025    0.1933908   -0.9604872   -0.2001607
   0.0006177   -0.0034494   -0.0013798   -0.7614764   -0.4758694   -0.4401159
   0.0002061   -0.0036684   -0.0007648   -0.6282963   -0.6875581   -0.3640159
   0.0003446   -0.0031751   -0.0005914   -0.9397992    0.2043271   -0.2739122
   0.0003306   -0.0025772   -0.0003168   -0.9594411    0.0342671   -0.2798189
   0.0003650   -0.0019318   -0.0004415   -0.9677750   -0.0615390   -0.2441813
  -0.0000494   -0.0004266    0.0006228   -0.9652240   -0.1311102   -0.2261699
  -0.0001596    0.0003104    0.0006313   -0.9678432   -0.1554100   -0.1978061
   0.0001711   -0.0013139    0.0001488   -0.9671002   -0.0907050   -0.2376757
   0.0156888    0.0003339    0.0012927    0.3451297   -0.0464231    0.9374062
   0.0158233    0.0007240    0.0012274    0.3442947    0.1035573    0.9331329
   0.0159407   -0.0002286    0.0011244    0.2807191   -0.3534305    0.8923473
   0.0154175   -0.0004719    0.0011815    0.2981558   -0.4899764    0.8191619
   0.0160096   -0.0005889    0.0008697    0.2188885   -0.6958284    0.6840400
   0.0146726   -0.0009555    0.0010171    0.2784122   -0.7461571    0.6047613
   0.0156568    0.0011153    0.0011958    0.3202057    0.2418434    0.9159585
   0.0162798    0.0013517    0.0009283    0.2920055    0.3796048    0.8778571
   0.0158426    0.0020921    0.0006021    0.2488202    0.6598267    0.7090255
   0.0155726    0.0024482    0.0003152    0.2388180    0.8120684    0.5324574
   0.0019675   -0.0019506    0.0026909    0.0231027   -0.4582679    0.8885138
   0.0001325   -0.0015257    0.0026784   -0.1495690   -0.6064742    0.7809085
   0.0015197   -0.0021347    0.0025518   -0.1070676   -0.5893573    0.8007462
  -0.0004239   -0.0018392    0.0023281   -0.7987390   -0.4956949    0.3410316
  -0.0002471   -0.0016201    0.0017149   -0.9634830   -0.0356552   -0.2653851
  -0.0000739   -0.0012390    0.0010310   -0.9626322   -0.0623535   -0.2635362
   0.0013868   -0.0023918    0.0022905   -0.1683038   -0.7082552    0.6856008
   0.0017305   -0.0027092    0.0019837   -0.1321577   -0.7827099    0.6081936
   0.0021336   -0.0029203    0.0017741   -0.0243350   -0.8172583    0.5757575
   0.0024529   -0.0031713    0.0013592    0.1141878   -0.8524858    0.5101266
   0.0031000   -0.0030039    0.0013941    0.2449021   -0.8240640    0.5108244
   0.0040780   -0.0030692    0.0007128    0.2141628   -0.8648273    0.4541013
   0.0049414   -0.0030683    0.0004334    0.1094211   -0.8441516    0.5248191
   0.0058762   -0.0031684    0.0001484    0.1466600   -0.8197123    0.5536810
   0.0066464   -0.0026258    0.0007025    0.1300799   -0.8068084    0.5763155
   0.0061218   -0.0028861    0.0004431    0.1592651   -0.8005576    0.5777042
   0.0076713   -0.0027297    0.0003318    0.1290151   -0.8248715    0.5504018
   0.0091413   -0.0026786    0.0001512    0.0709363   -0.8926003    0.4452334
   0.0084736   -0.0028525   -0.0001216    0.1128618   -0.9129272    0.3922067
   0.0106290   -0.0024265    0.0003057    0.1567961   -0.9262297    0.3428026
   0.0104111   -0.0026216   -0.0001697    0.2073066   -0.9591698    0.1923985
   0.0099054   -0.0026651    0.0000377    0.1335129   -0.9183933    0.3724620
   0.0109566   -0.0021239    0.0007201    0.1147991   -0.8390427    0.5318163
   0.0121627   -0.0021063    0.0004393    0.1646194   -0.8469803    0.5054946
   0.0122828   -0.0018812    0.0007410    0.1812887   -0.7799555    0.5990024
   0.0142417   -0.0012905    0.0008074    0.2662993   -0.7814673    0.5642638
   0.0132872   -0.0018743    0.0003426    0.2325215   -0.8209280    0.5215468
   0.0113452   -0.0022710   -0.0011715    0.1240944   -0.9569566   -0.2623636
   0.0107319   -0.0023968   -0.0012537    0.2420355   -0.9225653   -0.3004863
   0.0097838   -0.0026780   -0.0011066    0.1820392   -0.9285940   -0.3233805
   0.0087108   -0.0028958   -0.0008735    0.1289098   -0.9791902   -0.1567445
   0.0083199   -0.0028883   -0.0011369    0.1344775   -0.9554287   -0.2628150
   0.0132776   -0.0019839   -0.0019793   -0.0010364   -0.8726396   -0.4883637
   0.0128543   -0.0022328   -0.0013279   -0.0185015   -0.9652000   -0.2608577
   0.0120580   -0.0021552   -0.0013977   -0.0149502   -0.9472022   -0.3202881
   0.0039885   -0.0034043   -0.0005006    0.1766742   -0.9840658   -0.0200202
   0.0045668   -0.0033338   -0.0002810    0.0373815   -0.9972960    0.0632716
   0.0054300   -0.0034493   -0.0002404   -0.0820199   -0.9838780    0.1589238
   0.0055305   -0.0033340   -0.0007173   -0.1553683   -0.9200949   -0.3595637
   0.0076033   -0.0030483   -0.0004267    0.1442172   -0.9830990    0.1127732
   0.0069416   -0.0031528   -0.0003181    0.1903677   -0.9390015    0.2864199
   0.0060416   -0.0035724   -0.0005942    0.0829237   -0.9955885   -0.0439004
   0.0063640   -0.0032151   -0.0001333    0.2445572   -0.8572516    0.4531131
   0.0160686    0.0023802    0.0002274    0.3089817    0.7701134    0.5580822
   0.0151254   -0.0015158   -0.0020621    0.1643423   -0.7274322   -0.6662087
   0.0149862   -0.0019605   -0.0015300    0.1908762   -0.8887538   -0.4167529
   0.0135640   -0.0021532   -0.0015923    0.0857695   -0.9548097   -0.2845736
   0.0168304   -0.0015339   -0.0016265    0.4128227   -0.7886433   -0.4556525
   0.0172359   -0.0014883   -0.0007660    0.8544337   -0.5194031   -0.0127874
   0.0172930    0.0003125    0.0009726    0.6197505    0.0583181    0.7826291
   0.0166424    0.0009070    0.0009767    0.2646469    0.2577618    0.9292582
   0.0169975   -0.0007709    0.0005025    0.6484835   -0.5142533    0.5612599
   0.0170339   -0.0003545    0.0007964    0.7162478   -0.3491183    0.6042396
   0.0006429   -0.0036210   -0.0003963    0.0349411   -0.9965891    0.0747617
   0.0011978   -0.0036346   -0.0002912   -0.0859500   -0.9893922    0.1171137
   0.0018056   -0.0036864   -0.0000822   -0.0752524   -0.9920012    0.1013447
   0.0023988   -0.0036759    0.0000653    0.0796109   -0.9860539    0.1461497
   0.0032537   -0.0035423   -0.0001197    0.2012250   -0.9712808    0.1269729
   0.0001316   -0.0036474   -0.0001978   -0.7350073   -0.6703054    0.1022495
   0.0001851   -0.0031048    0.0001328   -0.9780814   -0.0455738   -0.2031743
   0.0001048   -0.0026114    0.0004420   -0.9533643    0.0422762   -0.2988464
   0.0001526   -0.0019850    0.0003377   -0.9615229   -0.0103627   -0.2745292
   0.0165687    0.0000644    0.0009959    0.2204808   -0.1222807    0.9676961
   0.0165100    0.0005414    0.0010415    0.1963776    0.0549891    0.9789852
   0.0169494   -0.0013206   -0.0002586    0.1486196   -0.8460539    0.5119619
   0.0161626   -0.0011351    0.0000999    0.1175138   -0.8336408    0.5396605
   0.0156755   -0.0009660    0.0005035    0.2386726   -0.8105583    0.5348184
   0.0146275   -0.0014708    0.0002642    0.2903440   -0.8203559    0.4926627
   0.0003617   -0.0020959    0.0022499   -0.1765553   -0.6824660    0.7092731
  -0.0002167   -0.0025146    0.0017121   -0.6975461   -0.5982528    0.3943642
  -0.0000585   -0.0021946    0.0010449   -0.9644017    0.0175653   -0.2638577
   0.0008860   -0.0026090    0.0018424   -0.1656724   -0.7756170    0.6090738
   0.0008144   -0.0030834    0.0011389   -0.1015942   -0.8534957    0.5111005
   0.0020513   -0.0034016    0.0009495   -0.0255195   -0.9034515    0.4279300
   0.0028317   -0.0033168    0.0009601    0.1937660   -0.8953602    0.4009799
   0.0040324   -0.0032465    0.0003490    0.1696765   -0.9348006    0.3120222
   0.0047331   -0.0032686    0.0000240    0.0299055   -0.9368509    0.3484482
   0.0072648   -0.0029010    0.0001443    0.1170731   -0.8946570    0.4311413
   0.0088938   -0.0028693   -0.0003416    0.1153029   -0.9766294    0.1813842
   0.0111326   -0.0024069    0.0000897    0.1452660   -0.9523425    0.2682191
   0.0109256   -0.0024783   -0.0004072    0.2331000   -0.9723818   -0.0117533
   0.0102068   -0.0026628   -0.0007998    0.2483012   -0.9592229   -0.1350478
   0.0096631   -0.0027957   -0.0006387    0.1603632   -0.9868417   -0.0206666
   0.0112449   -0.0022710    0.0004148    0.1180349   -0.9247994    0.3616820
   0.0131659   -0.0021138   -0.0000331    0.2201234   -0.9086562    0.3548092
   0.0119474   -0.0022722    0.0001584    0.1318353   -0.9581550    0.2540836
   0.0140963   -0.0018049    0.0000360    0.2735952   -0.8723557    0.4051434
   0.0119466   -0.0022819   -0.0008930    0.0154792   -0.9887140   -0.1490135
   0.0116395   -0.0023499   -0.0002388    0.1245449   -0.9908698    0.0516287
   0.0131533   -0.0022570   -0.0009205    0.0849660   -0.9961065   -0.0235089
   0.0039716   -0.0033674   -0.0000205    0.1934682   -0.9573526    0.2145835
   0.0156181   -0.0016221   -0.0017901    0.1605094   -0.8380304   -0.5214803
   0.0156984   -0.0018509   -0.0013340    0.2094183   -0.9772076   -0.0347742
   0.0145762   -0.0020563   -0.0013916    0.1577832   -0.9860689   -0.0526552
   0.0169256   -0.0015929   -0.0013161    0.3572431   -0.9328013   -0.0475302
   0.0164136   -0.0017079   -0.0011425    0.1849006   -0.9815286    0.0491263
   0.0163130   -0.0017105   -0.0014573    0.1726348   -0.9693554   -0.1747777
   0.0165289   -0.0015372   -0.0006583    0.1266536   -0.9258284    0.3560909
   0.0009183   -0.0035014    0.0002872   -0.0475786   -0.9571049    0.2858085
   0.0020257   -0.0035801    0.0004663   -0.0570744   -0.9594537    0.2760274
   0.0027145   -0.0035088    0.0005553    0.1454689   -0.9423336    0.3014069
   0.0002967   -0.0034361    0.0004697   -0.4230110   -0.8592384    0.2876997
  -0.0001098   -0.0031944    0.0009455   -0.7928132   -0.5968853    0.1231876
   0.0157335   -0.0014502   -0.0002990    0.1678649   -0.8624677    0.4774629
   0.0152243   -0.0015334   -0.0001933    0.2523165   -0.8519459    0.4588295
   0.0149998   -0.0018048   -0.0006010    0.2445971   -0.8996111    0.3617625
