NORM_ASCII
937 1860
   0.0096288    0.0014508    0.0019911    0.2402617   -0.4703567    0.8491401
   0.0092261    0.0023832    0.0026965    0.3489922   -0.4503128    0.8218411
   0.0086621    0.0028080    0.0032176    0.3814758   -0.4754203    0.7927495
   0.0089022    0.0031584    0.0032135    0.5277504   -0.1354159    0.8385357
   0.0099137    0.0007109    0.0015502    0.1258937   -0.4508680    0.8836678
   0.0108946    0.0001441    0.0011906   -0.0901564   -0.4768855    0.8743295
   0.0102395    0.0003677    0.0013256    0.0489135   -0.5382169    0.8413858
   0.0179350    0.0019748    0.0025910    0.0498870    0.1750663    0.9832920
   0.0171661    0.0020929    0.0025048   -0.1143262    0.1103962    0.9872903
   0.0181739    0.0025839    0.0023959    0.1550143    0.4156140    0.8962341
   0.0185215    0.0034190    0.0017483    0.2127202    0.6639261    0.7169047
   0.0176364    0.0034538    0.0019684    0.1374673    0.7023280    0.6984540
   0.0175361    0.0037171    0.0016272    0.0782563    0.8503334    0.5203932
   0.0159071    0.0011604    0.0024642   -0.0471352    0.1179418    0.9919012
   0.0172720    0.0007281    0.0028596   -0.0783536    0.0857755    0.9932287
   0.0162862    0.0006429    0.0026000   -0.2075437    0.0582531    0.9764897
   0.0159597   -0.0000133    0.0024882   -0.1896634   -0.1864578    0.9639820
   0.0157618   -0.0004907    0.0022627   -0.2459277   -0.4705304    0.8474200
   0.0151983   -0.0004790    0.0021038   -0.2587814   -0.5343892    0.8046492
   0.0144948   -0.0002493    0.0020166   -0.2745227   -0.5974127    0.7534822
   0.0128658    0.0000625    0.0016211   -0.3027211   -0.4630964    0.8330076
   0.0133604   -0.0003003    0.0015324   -0.2554363   -0.6375557    0.7268253
   0.0117935    0.0000200    0.0012738   -0.1921069   -0.4955069    0.8470938
   0.0119224   -0.0003429    0.0010553   -0.2119656   -0.6092246    0.7641439
   0.0071608    0.0042942    0.0018000    0.5210743    0.2278468   -0.8225372
   0.0067097    0.0041181    0.0015953    0.4955314    0.5890712   -0.6383132
   0.0066174    0.0040716    0.0001697    0.2321766    0.9295942   -0.2862666
   0.0062436    0.0043409    0.0010278    0.4423279    0.8242439   -0.3535080
   0.0067232    0.0034007   -0.0012346    0.1027361    0.8652821   -0.4906446
   0.0062915    0.0038419   -0.0005236    0.1693182    0.8757769   -0.4520467
   0.0107734    0.0024810   -0.0020691    0.0716380    0.5518227   -0.8308789
   0.0098724    0.0019724   -0.0024438    0.1089835    0.3853455   -0.9163141
   0.0097216    0.0023071   -0.0022830    0.1106905    0.5256698   -0.8434565
   0.0069142    0.0029332   -0.0019470    0.0758687    0.7876045   -0.6114926
   0.0085176    0.0025989   -0.0021821    0.0656134    0.6753385   -0.7345835
   0.0086444    0.0021486   -0.0025041    0.0882155    0.4741268   -0.8760262
   0.0089704    0.0019082   -0.0025944    0.0988673    0.3817462   -0.9189641
   0.0115398    0.0023106   -0.0020813    0.0935584    0.4301141   -0.8979135
   0.0157293    0.0034398   -0.0009864   -0.0255345    0.8237305   -0.5664063
   0.0152943    0.0032409   -0.0012094   -0.0388203    0.7124403   -0.7006581
   0.0148690    0.0030368   -0.0013985   -0.0036756    0.6631138   -0.7485096
   0.0173302    0.0038038   -0.0001177    0.0236914    0.9555227   -0.2939644
   0.0163756    0.0036490   -0.0006450   -0.0011434    0.8886715   -0.4585430
   0.0174482    0.0037827    0.0015084    0.0450685    0.9551981    0.2925156
   0.0181870    0.0038265    0.0000320    0.0947930    0.9615299   -0.2578264
   0.0185661    0.0038498    0.0007832    0.1520206    0.9815920    0.1156149
   0.0180980    0.0037220    0.0014840    0.1423096    0.8943072    0.4242200
   0.0144742    0.0027859   -0.0015614    0.0181671    0.4860615   -0.8737357
   0.0138907    0.0027526   -0.0016318    0.0828602    0.5053385   -0.8589338
   0.0132194    0.0022645   -0.0019272    0.1244956    0.3121952   -0.9418254
   0.0127516    0.0023844   -0.0019368    0.1002317    0.3884634   -0.9159966
   0.0080484    0.0046779    0.0022312    0.6171079    0.0119683   -0.7867875
   0.0075415    0.0045774    0.0019356    0.4359395   -0.0602472   -0.8979571
   0.0088713    0.0037845    0.0027920    0.4778894    0.6457705   -0.5954848
   0.0086696    0.0041299    0.0030403    0.7307985    0.3357131   -0.5943318
   0.0085051    0.0044740    0.0026375    0.7643669   -0.0387543   -0.6436158
   0.0090127    0.0038168    0.0030520    0.8458116    0.4749094    0.2430305
   0.0087740    0.0038462    0.0032271    0.7537323    0.0550999    0.6548676
   0.0087995    0.0021522    0.0027021    0.2445527   -0.5574568    0.7933699
   0.0091433    0.0011823    0.0019470    0.1574294   -0.5286554    0.8341099
   0.0085885    0.0030185    0.0033972    0.5082388   -0.3554317    0.7844498
   0.0082280    0.0023623    0.0030189    0.3010317   -0.5891154    0.7498819
   0.0092463    0.0001990    0.0013306    0.1167122   -0.5443743    0.8306834
   0.0111275   -0.0002700    0.0009322   -0.1350461   -0.6307012    0.7641849
   0.0105398   -0.0002489    0.0008841   -0.0379232   -0.6776881    0.7343709
   0.0095866   -0.0002909    0.0008839    0.0947345   -0.6665150    0.7394479
   0.0188026    0.0020266    0.0024727    0.1135583    0.2767464    0.9542096
   0.0183865    0.0010493    0.0026687    0.0878263    0.1383100    0.9864871
   0.0180074    0.0006245    0.0027711    0.1098558    0.0687382    0.9915678
   0.0191402    0.0029791    0.0019578    0.2047278    0.5965367    0.7760351
   0.0186980    0.0036405    0.0013816    0.2245962    0.8431031    0.4886038
   0.0177004    0.0001370    0.0027837    0.0582784   -0.0717432    0.9957191
   0.0168876    0.0004048    0.0027957   -0.2562969   -0.0818035    0.9631304
   0.0171610   -0.0000688    0.0027752   -0.0957072   -0.2174336    0.9713716
   0.0164608    0.0002091    0.0026189   -0.2694502   -0.1147376    0.9561547
   0.0164338   -0.0003678    0.0025180   -0.2651676   -0.3273322    0.9069398
   0.0162686   -0.0010589    0.0020254   -0.2854207   -0.6106826    0.7386487
   0.0157199   -0.0010641    0.0018004   -0.2823365   -0.6905720    0.6658802
   0.0150391   -0.0009605    0.0015985   -0.3064913   -0.7497945    0.5864054
   0.0142102   -0.0008332    0.0013104   -0.2718029   -0.7808478    0.5624943
   0.0139754   -0.0005398    0.0015483   -0.2484928   -0.7265693    0.6405845
   0.0130000   -0.0007257    0.0009535   -0.1765225   -0.8017839    0.5709486
   0.0120667   -0.0006294    0.0008092   -0.1763557   -0.7451707    0.6431324
   0.0112240   -0.0008562    0.0003336   -0.1353215   -0.7807290    0.6100413
   0.0071128    0.0048163    0.0017650    0.4033968    0.0395593   -0.9141696
   0.0063833    0.0047080    0.0014270    0.4731168    0.2876620   -0.8327131
   0.0060268    0.0041254   -0.0000960    0.2282393    0.8978414   -0.3765470
   0.0056579    0.0044904    0.0006367    0.4053043    0.7805886   -0.4758255
   0.0059633    0.0046278    0.0011451    0.5059498    0.5722919   -0.6453656
   0.0058196    0.0030532   -0.0019852    0.1584390    0.7987345   -0.5804483
   0.0052436    0.0034467   -0.0015592    0.1676678    0.8511001   -0.4975100
   0.0047598    0.0036286   -0.0014140    0.1981574    0.8692062   -0.4530057
   0.0052683    0.0040941   -0.0003833    0.1290820    0.8712148   -0.4736271
   0.0104880    0.0018892   -0.0023902    0.1358972    0.3121553   -0.9402612
   0.0092643    0.0012268   -0.0026681    0.1655849   -0.0129246   -0.9861108
   0.0092981    0.0017227   -0.0026112    0.1488911    0.2567534   -0.9549393
   0.0099401    0.0016663   -0.0025340    0.1202417    0.2044174   -0.9714708
   0.0069327    0.0026846   -0.0022253    0.0988762    0.7188454   -0.6881023
   0.0072069    0.0024003   -0.0024567    0.1170770    0.5992340   -0.7919669
   0.0081700    0.0023524   -0.0024067    0.0866865    0.5311704   -0.8428187
   0.0079413    0.0013344   -0.0028442    0.1666725    0.1652997   -0.9720578
   0.0076896    0.0016957   -0.0027975    0.1468671    0.3412584   -0.9284249
   0.0088431    0.0013976   -0.0027276    0.1256426    0.0916414   -0.9878339
   0.0121562    0.0018944   -0.0021578    0.1238483    0.1910717   -0.9737316
   0.0112234    0.0018895   -0.0022801    0.1242015    0.1715706   -0.9773114
   0.0160777    0.0031842   -0.0012828    0.0409084    0.6896059   -0.7230285
   0.0155863    0.0029638   -0.0014612   -0.0204559    0.6250557   -0.7803120
   0.0151939    0.0027020   -0.0016107   -0.0315895    0.5055633   -0.8622110
   0.0173046    0.0036331   -0.0005339    0.0836593    0.8658210   -0.4933103
   0.0165723    0.0034820   -0.0009063    0.0677285    0.8285987   -0.5557312
   0.0187609    0.0037740    0.0002286    0.2390670    0.9429485   -0.2317222
   0.0183752    0.0035921   -0.0003796    0.1782495    0.7900689   -0.5865307
   0.0192045    0.0037049    0.0008333    0.2988140    0.9542211    0.0131253
   0.0193656    0.0036191    0.0010773    0.2997784    0.9316248    0.2054463
   0.0149751    0.0022603   -0.0017933   -0.0589423    0.2871155   -0.9560808
   0.0139635    0.0022156   -0.0018330    0.0743888    0.2528506   -0.9646413
   0.0139459    0.0017066   -0.0018937    0.0752263    0.0354612   -0.9965358
   0.0127367    0.0018889   -0.0020867    0.1357055    0.1570229   -0.9782269
   0.0078626    0.0051591    0.0021380    0.4882743    0.1387670   -0.8615869
   0.0080442    0.0058616    0.0024634    0.8363303    0.4863368   -0.2530377
   0.0088985    0.0040302    0.0029962    0.6567518    0.7284571   -0.1950061
   0.0087804    0.0040484    0.0031741    0.9334378    0.3559700    0.0444880
   0.0088954    0.0046557    0.0031508    0.9999809   -0.0014285    0.0060189
   0.0080874    0.0011868    0.0021606    0.2338582   -0.5666457    0.7900778
   0.0077428    0.0017650    0.0027568    0.4055931   -0.6138745    0.6772387
   0.0085318    0.0004378    0.0015615    0.1525321   -0.5091144    0.8470753
   0.0075479    0.0020525    0.0031329    0.5337260   -0.6304797    0.5635884
   0.0067288    0.0014588    0.0035259    0.2915495   -0.1001067    0.9513031
   0.0080225    0.0002571    0.0015637    0.2636327   -0.5336736    0.8035486
   0.0084046   -0.0001260    0.0012076    0.1617405   -0.6027966    0.7813298
   0.0099783   -0.0006328    0.0004762    0.0449848   -0.7832957    0.6200196
   0.0105992   -0.0008779    0.0001615   -0.0477893   -0.8125578    0.5809183
   0.0092262   -0.0007375    0.0004740    0.1459609   -0.7786073    0.6103001
   0.0084914   -0.0005298    0.0008623    0.1884095   -0.6812141    0.7074244
   0.0198785    0.0018247    0.0024467    0.0693548    0.3888027    0.9187069
   0.0193805    0.0012935    0.0025970    0.0179930    0.1807571    0.9833632
   0.0185735    0.0002999    0.0027367    0.0219141    0.0272063    0.9993896
   0.0199922    0.0033134    0.0013101    0.2405458    0.8332664    0.4978000
   0.0201647    0.0028620    0.0017866    0.1575627    0.6568747    0.7373531
   0.0183769   -0.0006384    0.0026748    0.0058108   -0.2956380    0.9552824
   0.0178278   -0.0007882    0.0025915   -0.0833173   -0.4669965    0.8803252
   0.0170845   -0.0007122    0.0025190   -0.1751296   -0.4767583    0.8614123
   0.0165623   -0.0007680    0.0023515   -0.2759449   -0.5189934    0.8090119
   0.0169235   -0.0011898    0.0021402   -0.2070123   -0.6760745    0.7071557
   0.0163096   -0.0014174    0.0016323   -0.2455672   -0.7820893    0.5727417
   0.0155059   -0.0013572    0.0012721   -0.2915353   -0.8611872    0.4163697
   0.0144237   -0.0010705    0.0010504   -0.2697190   -0.8766718    0.3983695
   0.0147431   -0.0012592    0.0008712   -0.2946937   -0.8912797    0.3446391
   0.0136665   -0.0010908    0.0005304   -0.1731263   -0.9249786    0.3382925
   0.0132299   -0.0009698    0.0006401   -0.1718700   -0.8765107    0.4496551
   0.0123520   -0.0011020    0.0001008   -0.0658074   -0.9413296    0.3310106
   0.0121058   -0.0009242    0.0004210   -0.1120434   -0.8536689    0.5086214
   0.0109525   -0.0011387   -0.0002476   -0.0599092   -0.9298718    0.3629730
   0.0071025    0.0052802    0.0018177    0.3607958    0.2315518   -0.9034435
   0.0057210    0.0049747    0.0011789    0.3914862    0.4957843   -0.7752009
   0.0058776    0.0054393    0.0014337    0.3357314    0.3416927   -0.8777986
   0.0051659    0.0043551    0.0000026    0.1875926    0.8425279   -0.5049313
   0.0053683    0.0047232    0.0007988    0.3237478    0.6995490   -0.6370388
   0.0045908    0.0033924   -0.0019187    0.2525752    0.8262477   -0.5035081
   0.0045398    0.0030126   -0.0024816    0.2728987    0.7333184   -0.6227121
   0.0056679    0.0027723   -0.0023683    0.1809322    0.7124979   -0.6779456
   0.0045180    0.0040406   -0.0007030    0.1254855    0.9047150   -0.4071169
   0.0038562    0.0037454   -0.0017682    0.2611682    0.8833686   -0.3891671
   0.0041393    0.0039035   -0.0011425    0.1978660    0.9106529   -0.3627124
   0.0039929    0.0041848   -0.0004561    0.1177063    0.8978596   -0.4242562
   0.0104708    0.0015871   -0.0024484    0.1882361    0.0272356   -0.9817461
   0.0090349    0.0007767   -0.0026038    0.1925145   -0.3348454   -0.9223973
   0.0083795    0.0008414   -0.0027578    0.2147423   -0.1835440   -0.9592692
   0.0100596    0.0010487   -0.0024753    0.1935511   -0.2129174   -0.9577077
   0.0057446    0.0023851   -0.0027188    0.1654672    0.6078744   -0.7766011
   0.0069451    0.0020355   -0.0027581    0.1664047    0.5201126   -0.8377305
   0.0071900    0.0017393   -0.0028690    0.1740980    0.4177989   -0.8917028
   0.0072553    0.0011209   -0.0030440    0.2860967    0.1811980   -0.9409123
   0.0073768    0.0007375   -0.0030264    0.3352302   -0.1088862   -0.9358229
   0.0124504    0.0014569   -0.0021340    0.1483311   -0.0619943   -0.9869927
   0.0113079    0.0015706   -0.0023058    0.1220038   -0.0565018   -0.9909201
   0.0109515    0.0012168   -0.0023214    0.1654785   -0.0910130   -0.9820048
   0.0172175    0.0033111   -0.0009622    0.1596755    0.6776138   -0.7178742
   0.0165557    0.0025907   -0.0016703    0.1663302    0.5309638   -0.8309102
   0.0161711    0.0023259   -0.0018657    0.0295264    0.4731231   -0.8805014
   0.0155978    0.0022438   -0.0018709   -0.0966374    0.3711755   -0.9235204
   0.0194247    0.0035924    0.0004188    0.3784696    0.9140902   -0.1456020
   0.0191150    0.0035158   -0.0001371    0.3202127    0.8259752   -0.4639275
   0.0188612    0.0032079   -0.0006371    0.2643442    0.6894282   -0.6743967
   0.0184169    0.0030942   -0.0008634    0.1662829    0.6504073   -0.7411615
   0.0180081    0.0029054   -0.0010943    0.1747567    0.5715649   -0.8017317
   0.0199176    0.0034171    0.0010333    0.3103947    0.9499593    0.0351051
   0.0153688    0.0016609   -0.0020160   -0.1810731    0.2221097   -0.9580605
   0.0148339    0.0013916   -0.0019320   -0.1580403    0.0268499   -0.9870676
   0.0144610    0.0019626   -0.0018493    0.0222087    0.1379139   -0.9901952
   0.0144346    0.0010864   -0.0018548   -0.0757132   -0.1388163   -0.9874196
   0.0138526    0.0011730   -0.0018619    0.0852955   -0.1627899   -0.9829670
   0.0074879    0.0055311    0.0020466    0.3756938    0.3297654   -0.8660883
   0.0074075    0.0064207    0.0024523    0.4150628    0.5917273   -0.6910728
   0.0062306    0.0069833    0.0024091    0.3420314    0.7668947    0.5430350
   0.0076475    0.0010055    0.0022061    0.4005328   -0.5365459    0.7427597
   0.0073435    0.0014831    0.0028015    0.5475979   -0.5824443    0.6007454
   0.0070751    0.0013360    0.0029359    0.6364171   -0.5675273    0.5223850
   0.0066642    0.0009154    0.0031125    0.7260173   -0.5341944    0.4330533
   0.0000310    0.0025473    0.0035908   -0.8438415    0.0777684    0.5309272
   0.0002860    0.0002816    0.0038068   -0.7125565    0.0232397    0.7012297
   0.0031309    0.0047658    0.0030005    0.0014520    0.1606429    0.9870115
   0.0057093    0.0000552    0.0037865    0.6094298   -0.4202348    0.6723080
   0.0079278   -0.0003461    0.0011796    0.2815220   -0.6031620    0.7462848
   0.0074579   -0.0002392    0.0014716    0.4081190   -0.5725321    0.7110878
   0.0071368    0.0000525    0.0018715    0.4949188   -0.5149105    0.6999447
   0.0102672   -0.0011251   -0.0002133    0.0122372   -0.9134045    0.4068692
   0.0095437   -0.0010645   -0.0001033    0.0977586   -0.8700671    0.4831423
   0.0083971   -0.0010390    0.0003215    0.2246370   -0.7786331    0.5858914
   0.0087031   -0.0012450   -0.0001144    0.2252579   -0.8675402    0.4434331
   0.0076707   -0.0010778    0.0005988    0.3029804   -0.7147888    0.6303014
   0.0202976    0.0020382    0.0023299    0.3861389    0.4144973    0.8240684
   0.0208308    0.0010148    0.0026645    0.5468941    0.1288324    0.8272298
   0.0203634    0.0004060    0.0027543    0.3323158    0.0693574    0.9406146
   0.0193492    0.0000360    0.0027592   -0.0169212   -0.0185763    0.9996842
   0.0192241   -0.0003524    0.0027282    0.0072758   -0.1851815    0.9826774
   0.0204321    0.0033070    0.0011238    0.1848477    0.9210163    0.3428708
   0.0206837    0.0027768    0.0017523    0.5103462    0.5060194    0.6953353
   0.0198682   -0.0006449    0.0025902    0.0731891   -0.4572984    0.8862965
   0.0187478   -0.0010805    0.0024474    0.0449271   -0.5757904    0.8163621
   0.0181224   -0.0011857    0.0023447   -0.0420904   -0.6023469    0.7971240
   0.0175530   -0.0012572    0.0022239   -0.1158515   -0.6665421    0.7364103
   0.0176263   -0.0015716    0.0018587   -0.1201745   -0.8208369    0.5583771
   0.0166687   -0.0016296    0.0014467   -0.1977429   -0.8947546    0.4003897
   0.0160619   -0.0016541    0.0009050   -0.2389724   -0.9578594    0.1593660
   0.0149744   -0.0014086    0.0005255   -0.2452637   -0.9561297    0.1601925
   0.0139471   -0.0012359    0.0000510   -0.1678239   -0.9807613    0.0997115
   0.0130046   -0.0011532    0.0000052   -0.0694215   -0.9823055    0.1739443
   0.0123047   -0.0011857   -0.0003793    0.0212411   -0.9899673    0.1396912
   0.0113687   -0.0011981   -0.0003997   -0.0219141   -0.9957155    0.0898355
   0.0104421   -0.0011925   -0.0007235    0.0532790   -0.9948780   -0.0859015
   0.0060301    0.0060315    0.0017543    0.2970506    0.4335172   -0.8507783
   0.0051078    0.0050075    0.0008869    0.3265370    0.5775693   -0.7481893
   0.0048350    0.0054085    0.0011031    0.1832962    0.5139404   -0.8380142
   0.0052605    0.0055473    0.0012725    0.2551191    0.4003261   -0.8801439
   0.0046714    0.0049319    0.0006763    0.1637546    0.6879003   -0.7070909
   0.0037576    0.0046187    0.0002131    0.0858542    0.7903192   -0.6066504
   0.0034058    0.0036516   -0.0022514    0.2365551    0.8445326   -0.4804231
   0.0031693    0.0029677   -0.0031809    0.2129477    0.6580258   -0.7222572
   0.0030618    0.0035093   -0.0026380    0.1138534    0.8107098   -0.5742709
   0.0044899    0.0025281   -0.0029616    0.2736869    0.6124450   -0.7416243
   0.0035006    0.0039833   -0.0013617    0.1520599    0.9442216   -0.2921017
   0.0030468    0.0039615   -0.0017615    0.0753947    0.9449320   -0.3184637
   0.0030864    0.0042543   -0.0006057    0.0321636    0.9198365   -0.3909813
   0.0032090    0.0045803    0.0000394    0.0855794    0.8333870   -0.5460240
   0.0080448    0.0003251   -0.0026478    0.2692032   -0.4844540   -0.8323665
   0.0091813    0.0003330   -0.0023373    0.1683910   -0.4984450   -0.8504099
   0.0115147    0.0003106   -0.0019338    0.1397204   -0.3880814   -0.9109726
   0.0076680    0.0005456   -0.0028824    0.3071409   -0.3134633   -0.8985573
   0.0114380    0.0008246   -0.0021306    0.1621113   -0.2585939   -0.9522862
   0.0046702    0.0019668   -0.0032690    0.2687130    0.4912046   -0.8285598
   0.0058666    0.0019103   -0.0030102    0.1695253    0.4818283   -0.8597108
   0.0059365    0.0007883   -0.0035389    0.2249360    0.3068004   -0.9248120
   0.0063311    0.0005277   -0.0035099    0.3329865    0.0092700   -0.9428860
   0.0067073    0.0003726   -0.0033223    0.4499339   -0.2315231   -0.8625291
   0.0072486    0.0002826   -0.0029449    0.4041259   -0.4151428   -0.8150698
   0.0123357    0.0011259   -0.0020889    0.1356962   -0.2265065   -0.9645109
   0.0171854    0.0028591   -0.0013159    0.1979219    0.5592255   -0.8050427
   0.0175534    0.0024954   -0.0014485    0.2133106    0.4859972   -0.8475290
   0.0167359    0.0016889   -0.0020650    0.1593580    0.3810140   -0.9107323
   0.0160712    0.0017192   -0.0021200   -0.0442130    0.2938293   -0.9548348
   0.0196757    0.0034075    0.0001531    0.3944652    0.8536667   -0.3400740
   0.0196280    0.0030042   -0.0004732    0.3756259    0.6754313   -0.6345847
   0.0191073    0.0026980   -0.0009904    0.2663229    0.5796270   -0.7701328
   0.0190456    0.0021043   -0.0013872    0.2467960    0.4794808   -0.8421341
   0.0178992    0.0019785   -0.0016583    0.1757013    0.4527587   -0.8741502
   0.0202707    0.0032753    0.0005464    0.3116172    0.9129641   -0.2634221
   0.0159660    0.0009931   -0.0022501   -0.1407503    0.0056427   -0.9900290
   0.0156410    0.0005165   -0.0021146   -0.2476138   -0.2038190   -0.9471775
   0.0147796    0.0005259   -0.0018207   -0.2040015   -0.1982448   -0.9586878
   0.0141997    0.0003219   -0.0016830   -0.0555935   -0.2912781   -0.9550217
   0.0134868    0.0005461   -0.0017626    0.0930044   -0.2818643   -0.9549360
   0.0055125    0.0066730    0.0019529    0.2651313    0.5236031   -0.8096575
   0.0049079    0.0075042    0.0023520    0.2918470    0.9077310   -0.3014129
   0.0067173    0.0002840    0.0023896    0.5881195   -0.4958100    0.6389741
   0.0062175   -0.0000371    0.0026280    0.6294384   -0.5509706    0.5479404
   0.0057973   -0.0001476    0.0030834    0.6925419   -0.6121413    0.3816657
   0.0000071    0.0028563    0.0027637   -0.9908613   -0.1301214   -0.0355280
   0.0001177    0.0021255    0.0025921   -0.9906547   -0.1267252   -0.0504377
   0.0001523    0.0015338    0.0035376   -0.9927346   -0.1143982   -0.0372968
  -0.0000578    0.0033924    0.0029277   -0.9947368   -0.1013709   -0.0149189
  -0.0000578    0.0033924    0.0029277   -0.1650518    0.3340548    0.9279899
   0.0002963    0.0001376    0.0031140   -0.9992304   -0.0388210    0.0056100
   0.0003246   -0.0003910    0.0038479   -0.5936798    0.1267482    0.7946567
   0.0002393    0.0008064    0.0034062   -0.9948087   -0.0987134   -0.0247239
   0.0049519   -0.0007456    0.0039319    0.4613579   -0.4225956    0.7801037
   0.0005330    0.0063830    0.0028036   -0.7024862    0.5769796    0.4166626
  -0.0000843    0.0047232    0.0031406   -0.7198281    0.0805124    0.6894674
   0.0011698    0.0071518    0.0026377   -0.6403335    0.7669520    0.0419256
   0.0015586    0.0074912    0.0026285   -0.3292641    0.7486658   -0.5753996
   0.0034206    0.0077796    0.0023045   -0.0015698    0.9283264   -0.3717628
  -0.0001092    0.0041791    0.0028785   -0.0017198   -0.1944727    0.9809064
   0.0053679   -0.0005437    0.0032234    0.6710957   -0.6714740    0.3142504
   0.0073690   -0.0008098    0.0010374    0.3776649   -0.6464246    0.6629513
   0.0063540   -0.0007287    0.0018407    0.5132490   -0.5861698    0.6268815
   0.0066819   -0.0009432    0.0013673    0.4765854   -0.6482916    0.5937881
   0.0097920   -0.0012142   -0.0004419    0.1157712   -0.9850259    0.1277541
   0.0088554   -0.0013617   -0.0005155    0.2049360   -0.9560991    0.2094655
   0.0078896   -0.0015199   -0.0001541    0.2963820   -0.8463839    0.4424838
   0.0081571   -0.0016048   -0.0006520    0.2800193   -0.9573979    0.0705576
   0.0069913   -0.0014214    0.0005856    0.3949899   -0.7428051    0.5405770
   0.0212091    0.0029718    0.0006522    0.8894934    0.4539174    0.0525398
   0.0209282    0.0006097    0.0006036    0.9981323   -0.0610100    0.0031194
   0.0206006    0.0000425    0.0027622    0.3425520    0.2708406    0.8996129
   0.0211715   -0.0002702    0.0026637    0.4064299   -0.1232676    0.9053286
   0.0208862    0.0032228    0.0012046    0.4421566    0.8668345    0.2304247
   0.0208258   -0.0006187    0.0025115    0.0866539   -0.5275789    0.8450749
   0.0199068   -0.0010102    0.0023232    0.1126495   -0.6534844    0.7485106
   0.0186784   -0.0014465    0.0021138    0.0443281   -0.7603407    0.6480100
   0.0186670   -0.0017321    0.0016869    0.0241476   -0.8857051    0.4636198
   0.0178542   -0.0017426    0.0015778   -0.0825158   -0.9233358    0.3750228
   0.0171675   -0.0018598    0.0010010   -0.1135669   -0.9799196    0.1638906
   0.0167461   -0.0018336    0.0006163   -0.1558546   -0.9873859   -0.0279010
   0.0160552   -0.0016701    0.0002818   -0.1960465   -0.9762837   -0.0918470
   0.0149106   -0.0014080    0.0000034   -0.1826430   -0.9765167   -0.1142656
   0.0142061   -0.0011774   -0.0005795   -0.1099969   -0.9394723   -0.3244879
   0.0133632   -0.0011911   -0.0001439   -0.0438718   -0.9937542   -0.1026049
   0.0126304   -0.0011833   -0.0005291    0.0567160   -0.9870927   -0.1497707
   0.0123953   -0.0011738   -0.0007829    0.2720304   -0.9184795   -0.2870452
   0.0120047   -0.0013652   -0.0008980    0.0612946   -0.9498987   -0.3064887
   0.0117703   -0.0012210   -0.0007631   -0.2334544   -0.9706517   -0.0577438
   0.0110900   -0.0011671   -0.0007074   -0.0334494   -0.9342969   -0.3549232
   0.0099636   -0.0011866   -0.0010146    0.1063200   -0.9290749   -0.3542822
   0.0105693   -0.0009802   -0.0011101    0.1102535   -0.8150616   -0.5687870
   0.0052286    0.0062922    0.0016255    0.2225914    0.4873792   -0.8443427
   0.0041215    0.0054722    0.0010932    0.0343310    0.5569023   -0.8298682
   0.0042689    0.0060296    0.0013826   -0.0037542    0.4342855   -0.9007674
   0.0049012    0.0060124    0.0014141    0.1362830    0.4408632   -0.8871677
   0.0037334    0.0052479    0.0008990    0.0349528    0.6475492   -0.7612216
   0.0030860    0.0052570    0.0008629    0.0306266    0.7210533   -0.6922024
   0.0026985    0.0037909   -0.0021557   -0.0864970    0.9013414   -0.4243843
   0.0026621    0.0033587   -0.0028459   -0.0954363    0.7602860   -0.6425395
   0.0026749    0.0026903   -0.0034760    0.0198985    0.6175861   -0.7862516
   0.0033868    0.0025767   -0.0034058    0.2680692    0.5516691   -0.7898102
   0.0023024    0.0035864   -0.0023969   -0.2181530    0.8424593   -0.4926171
   0.0027558    0.0040827   -0.0011012   -0.0894709    0.9558077   -0.2800476
   0.0024825    0.0038813   -0.0018146   -0.2070471    0.9367696   -0.2821244
   0.0023535    0.0042852   -0.0004695   -0.0816316    0.8790007   -0.4697808
   0.0027457    0.0044146   -0.0002809   -0.0061904    0.8470406   -0.5314921
   0.0026750    0.0050461    0.0005911    0.0223300    0.7847125   -0.6194576
   0.0074239   -0.0005023   -0.0022609    0.3306629   -0.5910137   -0.7357750
   0.0080038   -0.0002091   -0.0022571    0.2366487   -0.5764343   -0.7821259
   0.0086948    0.0000265   -0.0022342    0.1773325   -0.5611117   -0.8085214
   0.0103105   -0.0002538   -0.0018179    0.1174098   -0.5797002   -0.8063266
   0.0111373   -0.0001586   -0.0017518    0.0995797   -0.5040722   -0.8579016
   0.0126584    0.0004423   -0.0018471    0.1220817   -0.3350851   -0.9342452
   0.0121376   -0.0002908   -0.0015986    0.0897843   -0.4529463   -0.8870053
   0.0033763    0.0018767   -0.0038364    0.2632344    0.4425965   -0.8572141
   0.0045413    0.0014134   -0.0036112    0.2796944    0.4067766   -0.8696573
   0.0051388    0.0007979   -0.0037088    0.2419586    0.2585676   -0.9351999
   0.0054942    0.0004958   -0.0037014    0.2315361    0.0788289   -0.9696273
   0.0057162    0.0001627   -0.0036764    0.2469121   -0.0713366   -0.9664086
   0.0061576    0.0000228   -0.0034646    0.3795526   -0.3944696   -0.8368593
   0.0069147   -0.0000431   -0.0029357    0.4520563   -0.5467130   -0.7048049
   0.0176616    0.0013461   -0.0020017    0.1669631    0.3453493   -0.9235027
   0.0169951    0.0012645   -0.0021685    0.1257949    0.2160376   -0.9682476
   0.0164738    0.0011611   -0.0022581    0.0540376    0.1685748   -0.9842065
   0.0200032    0.0030783   -0.0001015    0.4033537    0.7413837   -0.5363358
   0.0199666    0.0025830   -0.0006535    0.3853241    0.6046737   -0.6970617
   0.0196702    0.0022731   -0.0010396    0.3553673    0.5225664   -0.7750086
   0.0198407    0.0016854   -0.0012864    0.3637905    0.4111704   -0.8358202
   0.0191277    0.0014727   -0.0016857    0.2732506    0.3882206   -0.8801244
   0.0187199    0.0010626   -0.0019584    0.2035521    0.3136222   -0.9274738
   0.0208898    0.0028763    0.0002444    0.3473449    0.7820605   -0.5174291
   0.0169168    0.0004722   -0.0022424   -0.0108080   -0.0703022   -0.9974672
   0.0163986    0.0001467   -0.0021295   -0.1211594   -0.3365387   -0.9338427
   0.0157795    0.0001318   -0.0020248   -0.1928884   -0.3935344   -0.8988464
   0.0145072   -0.0002417   -0.0015122   -0.1986443   -0.3812105   -0.9028948
   0.0140833   -0.0005459   -0.0013146   -0.0811672   -0.5180651   -0.8514813
   0.0135529   -0.0002732   -0.0014486    0.0615628   -0.4544339   -0.8886506
   0.0042529    0.0075131    0.0021516    0.1540752    0.6148203   -0.7734707
   0.0057146   -0.0006602    0.0024944    0.5957326   -0.6242769    0.5053523
   0.0000359    0.0028855    0.0021895   -0.9876574   -0.1421778   -0.0657134
  -0.0000332    0.0032988    0.0023593   -0.9909644   -0.1256961   -0.0467978
   0.0001959    0.0013274    0.0029624   -0.9929953   -0.1112455   -0.0398088
   0.0001211    0.0026581    0.0015141   -0.9880761   -0.1346153   -0.0747289
   0.0002165    0.0018247    0.0015848   -0.9938976   -0.0949446   -0.0561529
   0.0002131    0.0014299    0.0023846   -0.9932507   -0.1047276   -0.0498509
  -0.0001092    0.0041791    0.0028785   -0.9984704   -0.0418361    0.0361463
  -0.0000893    0.0038327    0.0021946   -0.9934844   -0.1118278   -0.0219820
   0.0003020   -0.0006197    0.0031999   -0.9977825    0.0431433    0.0506830
   0.0002877    0.0004492    0.0022460   -0.9998745   -0.0157377    0.0018030
   0.0002779   -0.0003302    0.0024107   -0.9973695    0.0545869    0.0476895
   0.0002558    0.0008547    0.0027069   -0.9961454   -0.0820172   -0.0311041
   0.0002957   -0.0013281    0.0037876   -0.9915700    0.0871740    0.0958623
   0.0002816   -0.0023593    0.0042557   -0.8034059    0.1981214    0.5615041
   0.0027704   -0.0029924    0.0043669    0.4429083   -0.3407869    0.8292747
   0.0032284   -0.0025789    0.0040327    0.1865687    0.3259343    0.9268004
   0.0039555   -0.0018177    0.0037687    0.0425453    0.0529303    0.9976915
   0.0038445   -0.0020235    0.0032831    0.7509907   -0.5837371    0.3086487
   0.0039555   -0.0018177    0.0037687    0.7295505   -0.6739453    0.1164210
  -0.0000384    0.0051763    0.0028623   -0.8137745    0.4055793    0.4162650
   0.0000990    0.0057251    0.0025121   -0.8765500    0.4417747    0.1910374
   0.0003165    0.0060308    0.0020554   -0.6064173    0.7854212   -0.1239819
   0.0008798    0.0065211    0.0023013   -0.4773583    0.7191160   -0.5049765
  -0.0000384    0.0051763    0.0028623   -0.9750029    0.1926653    0.1106773
  -0.0001327    0.0047557    0.0025283   -0.9958474    0.0484302    0.0770871
   0.0013799    0.0067785    0.0022666   -0.2883283    0.5674068   -0.7713082
   0.0030139    0.0074546    0.0021913   -0.1768650    0.4543977   -0.8730644
   0.0022995    0.0067196    0.0020303   -0.1741238    0.4911228   -0.8535100
   0.0019075    0.0064259    0.0019250   -0.1131252    0.5884555   -0.8005766
   0.0041754    0.0068926    0.0017705    0.0175148    0.4645641   -0.8853663
   0.0043008   -0.0016436    0.0030401    0.6914236   -0.6363817    0.3419821
   0.0044970   -0.0016439    0.0026651    0.6901359   -0.6018282    0.4018895
   0.0046466   -0.0017243    0.0023204    0.6356670   -0.5979846    0.4882027
   0.0050889   -0.0019799    0.0016236    0.5945206   -0.6221767    0.5093539
   0.0058741   -0.0016008    0.0012917    0.4887467   -0.7328441    0.4733562
   0.0090665   -0.0013726   -0.0008760    0.2094935   -0.9536790   -0.2158909
   0.0093714   -0.0012517   -0.0009287    0.1763263   -0.9036031   -0.3903978
   0.0083160   -0.0014964   -0.0009014    0.2406084   -0.9341903   -0.2634314
   0.0067520   -0.0017781    0.0001595    0.3414861   -0.8614843    0.3758086
   0.0072638   -0.0017719   -0.0002999    0.2864347   -0.9297515    0.2313380
   0.0068480   -0.0019278   -0.0006384    0.2655613   -0.9627702   -0.0505039
   0.0072272   -0.0017384   -0.0010504    0.2476045   -0.8925119   -0.3769809
   0.0064496   -0.0016405    0.0007025    0.4108821   -0.8085224    0.4212688
   0.0211219    0.0024463   -0.0001970    0.7550520    0.4973296   -0.4272700
   0.0210273   -0.0015573    0.0012076    0.7379440   -0.6379366    0.2201715
   0.0206463   -0.0017526    0.0005555    0.5988275   -0.7878238   -0.1440114
   0.0207334   -0.0013978    0.0016429    0.5117965   -0.7377173    0.4402698
   0.0209528   -0.0010552    0.0020879    0.5868636   -0.7350451    0.3395583
   0.0212310   -0.0006681    0.0024376    0.6201870   -0.5448458    0.5643679
   0.0205790   -0.0016757    0.0001098    0.5586540   -0.7623368   -0.3267235
   0.0205281   -0.0011262   -0.0007550    0.6044073   -0.6186615   -0.5019460
   0.0212189    0.0016707   -0.0007861    0.7302697    0.3050574   -0.6112661
   0.0210178    0.0011631   -0.0010597    0.6362401    0.1312173   -0.7602503
   0.0209688    0.0005561   -0.0011915    0.7571055   -0.0947379   -0.6463869
   0.0207047   -0.0006167   -0.0010504    0.6855548   -0.3662553   -0.6291834
   0.0199485   -0.0013270    0.0019866    0.1447673   -0.7820249    0.6062009
   0.0196700   -0.0016581    0.0015630    0.1463861   -0.8787057    0.4543648
   0.0188475   -0.0019397    0.0011182    0.0423024   -0.9726624    0.2283384
   0.0186247   -0.0019765    0.0006351   -0.0098893   -0.9999462    0.0031321
   0.0177780   -0.0019104    0.0002943   -0.0740363   -0.9914107   -0.1078118
   0.0173356   -0.0018147    0.0000147   -0.1361397   -0.9539216   -0.2673940
   0.0152328   -0.0013619   -0.0003973   -0.1235891   -0.9352834   -0.3316183
   0.0135661   -0.0009714   -0.0009364    0.0026258   -0.8051104   -0.5931191
   0.0149885   -0.0011347   -0.0008634   -0.0971721   -0.8462626   -0.5238293
   0.0145258   -0.0009385   -0.0010148   -0.0945619   -0.7310634   -0.6757250
   0.0129895   -0.0009411   -0.0009910    0.2231306   -0.9026832   -0.3679345
   0.0123932   -0.0009968   -0.0010228    0.0496058   -0.8760268   -0.4797043
   0.0117855   -0.0010441   -0.0011491   -0.0834875   -0.7396331   -0.6678119
   0.0111395   -0.0008450   -0.0012450   -0.0154552   -0.7640317   -0.6449936
   0.0093584   -0.0010070   -0.0013168    0.1250066   -0.7251397   -0.6771600
   0.0105107   -0.0006786   -0.0014649    0.0794706   -0.6596249   -0.7473817
   0.0036458    0.0060038    0.0014117   -0.0592264    0.4856630   -0.8721374
   0.0036646    0.0067353    0.0017391   -0.1124424    0.4199130   -0.9005719
   0.0031878    0.0057983    0.0013244   -0.0654898    0.5687207   -0.8199194
   0.0022048    0.0054993    0.0011103   -0.0299376    0.7148668   -0.6986195
   0.0026100    0.0057314    0.0013101   -0.0636416    0.6236809   -0.7790840
   0.0018587    0.0035799   -0.0020484   -0.3238871    0.8754904   -0.3586275
   0.0017159    0.0031895   -0.0026223   -0.3242066    0.7617680   -0.5608917
   0.0022984    0.0030853   -0.0030591   -0.2244905    0.6949643   -0.6831022
   0.0022965    0.0024271   -0.0036144   -0.1611725    0.5628115   -0.8107199
   0.0030140    0.0023314   -0.0036835    0.1186234    0.5258227   -0.8422820
   0.0019610    0.0040686   -0.0007175   -0.1949835    0.8640385   -0.4641324
   0.0022259    0.0039455   -0.0012457   -0.2688485    0.9224800   -0.2770399
   0.0021424    0.0047034    0.0001798   -0.0611962    0.7965369   -0.6014849
   0.0070141   -0.0008073   -0.0021956    0.3552891   -0.6412901   -0.6800858
   0.0076551   -0.0011267   -0.0016362    0.2781603   -0.6663348   -0.6918271
   0.0081244   -0.0008821   -0.0017018    0.2116889   -0.6477338   -0.7318666
   0.0092171   -0.0005851   -0.0017169    0.1529770   -0.6077158   -0.7792814
   0.0113899   -0.0005639   -0.0014907    0.0319123   -0.5685942   -0.8219990
   0.0129982   -0.0006338   -0.0013032    0.2078004   -0.5093193   -0.8351125
   0.0123213   -0.0007345   -0.0013360   -0.0672527   -0.5393197   -0.8394113
   0.0029582    0.0016540   -0.0040508    0.1089029    0.3747060   -0.9207256
   0.0026306    0.0020698   -0.0038719   -0.0015140    0.4689114   -0.8832439
   0.0034299    0.0011168   -0.0041342    0.2276085    0.2544798   -0.9399119
   0.0044137    0.0003987   -0.0039980    0.2513570    0.0123352   -0.9678158
   0.0049409    0.0001588   -0.0038831    0.2434992   -0.0644866   -0.9677549
   0.0052667   -0.0000994   -0.0037119    0.2587504   -0.2868917   -0.9223564
   0.0051825   -0.0004802   -0.0035557    0.2734434   -0.5361644   -0.7985965
   0.0061734   -0.0004379   -0.0031316    0.4019117   -0.6044259   -0.6878491
   0.0062705   -0.0007996   -0.0026730    0.4042137   -0.6709312   -0.6216612
   0.0179033    0.0008302   -0.0021440    0.0973391    0.2125812   -0.9722831
   0.0173162    0.0008316   -0.0022193    0.0936800    0.1545634   -0.9835315
   0.0207350    0.0023683   -0.0004435    0.3384623    0.6166039   -0.7108045
   0.0203421    0.0021048   -0.0008197    0.3872982    0.4920114   -0.7796954
   0.0205034    0.0015142   -0.0010738    0.3360542    0.4015191   -0.8519683
   0.0194938    0.0010113   -0.0017020    0.3764185    0.2594617   -0.8893755
   0.0189702    0.0005621   -0.0020184    0.3197405    0.1297405   -0.9385805
   0.0182806    0.0002864   -0.0022201    0.1118257    0.0356115   -0.9930895
   0.0177310    0.0001176   -0.0022173   -0.0119697   -0.1245834   -0.9921369
   0.0171863   -0.0000447   -0.0021381   -0.0933953   -0.3422519   -0.9349550
   0.0167387   -0.0004508   -0.0018605   -0.1502581   -0.5315094   -0.8336188
   0.0156402   -0.0004127   -0.0016872   -0.1625722   -0.5550423   -0.8157808
   0.0147593   -0.0005263   -0.0014121   -0.1418181   -0.5562327   -0.8188363
  -0.0000014    0.0034273    0.0016057   -0.9861740   -0.1518191   -0.0664222
   0.0001174    0.0032294    0.0005775   -0.9817465   -0.1697752   -0.0857330
   0.0002305    0.0023514    0.0005845   -0.9945212   -0.0830191   -0.0635253
   0.0002582    0.0017857    0.0008963   -0.9981646   -0.0534788   -0.0284168
   0.0002693    0.0013203    0.0012001   -0.9994300   -0.0318626   -0.0111524
   0.0002629    0.0010988    0.0019592   -0.9973400   -0.0663852   -0.0300975
  -0.0001560    0.0044699    0.0018769   -0.9948719   -0.0957075    0.0327097
  -0.0000918    0.0040188    0.0015065   -0.9867958   -0.1584287   -0.0336814
   0.0002103   -0.0011789    0.0027503   -0.9815034    0.1642089    0.0984199
   0.0002670    0.0002277    0.0016105   -0.9962585    0.0619043    0.0603063
   0.0002828    0.0007780    0.0015875   -0.9999146   -0.0046949    0.0121939
   0.0001972   -0.0004835    0.0016148   -0.9810274    0.1436452    0.1301971
   0.0002329   -0.0007890    0.0022127   -0.9869966    0.1319855    0.0917468
   0.0000784   -0.0022383    0.0032964   -0.9523663    0.2076484    0.2233396
   0.0001163   -0.0029669    0.0039642   -0.9426592    0.1670514    0.2889419
   0.0002495   -0.0033780    0.0046034   -0.5040852    0.0225337    0.8633599
   0.0025991   -0.0032712    0.0037364    0.3765899   -0.8885120    0.2621573
   0.0031370   -0.0031203    0.0036714    0.5679269   -0.5918460    0.5719942
   0.0032284   -0.0025789    0.0040327    0.8259447   -0.4885484    0.2813110
   0.0024476   -0.0032475    0.0040217    0.5696451   -0.8217458    0.0154387
   0.0017895   -0.0039919    0.0044925    0.6212973   -0.6875104    0.3759243
   0.0037374   -0.0026797    0.0031472    0.7882611   -0.0322917    0.6144931
   0.0034160   -0.0024656    0.0034472    0.7945483   -0.4239051    0.4347384
   0.0039413   -0.0020332    0.0030204    0.8007183   -0.4287972    0.4183099
  -0.0001626    0.0051087    0.0020002   -0.9861435    0.0519306    0.1575567
  -0.0003985    0.0055850    0.0011824   -0.8755845    0.4830628   -0.0014465
   0.0004929    0.0059429    0.0015168   -0.1943180    0.8136999   -0.5478439
   0.0013843    0.0063008    0.0018513   -0.0902784    0.6803684   -0.7272885
   0.0030963    0.0066088    0.0017903   -0.1612339    0.4373020   -0.8847432
   0.0017482    0.0059327    0.0015462   -0.0352102    0.6626627   -0.7480898
   0.0043077   -0.0021638    0.0023698    0.7519093   -0.4160354    0.5114166
   0.0053284   -0.0021391    0.0010549    0.5451649   -0.7991355    0.2533331
   0.0044508   -0.0027653    0.0013306    0.6213162   -0.7744127    0.1193781
   0.0045979   -0.0024157    0.0018540    0.7821087   -0.4985936    0.3737786
   0.0058307   -0.0019092    0.0008212    0.4774463   -0.7879351    0.3888487
   0.0080374   -0.0013822   -0.0012183    0.2197522   -0.7790850   -0.5871419
   0.0064207   -0.0020433   -0.0002874    0.3038848   -0.9365299    0.1748308
   0.0059139   -0.0020551    0.0003350    0.3984312   -0.8714676    0.2860014
   0.0064003   -0.0019842   -0.0010113    0.2582116   -0.9044805   -0.3394729
   0.0055170   -0.0022998   -0.0006249    0.3092779   -0.9426677   -0.1253988
   0.0059003   -0.0021840   -0.0001927    0.3092823   -0.9469077    0.0878079
   0.0069396   -0.0015072   -0.0015356    0.2641242   -0.7734793   -0.5761668
   0.0200077   -0.0018105    0.0009943    0.1605444   -0.9539550    0.2533680
   0.0196858   -0.0019086    0.0005353    0.1202999   -0.9912809   -0.0537598
   0.0191682   -0.0018443   -0.0001152    0.1373390   -0.9454550   -0.2953859
   0.0203038   -0.0015429   -0.0002848    0.2497762   -0.8494339   -0.4648374
   0.0200083   -0.0013485   -0.0006983    0.2769843   -0.7403913   -0.6124544
   0.0199167   -0.0007572   -0.0012954    0.3652400   -0.5519422   -0.7496396
   0.0202873    0.0010283   -0.0013282    0.3525100    0.2375022   -0.9051682
   0.0202849    0.0006092   -0.0014015    0.3848498    0.0885544   -0.9187213
   0.0206110   -0.0000278   -0.0012721    0.4027483   -0.1523124   -0.9025490
   0.0202077   -0.0002456   -0.0013769    0.3944051   -0.2848448   -0.8736750
   0.0187968   -0.0019447    0.0001779    0.0260622   -0.9870304   -0.1584038
   0.0183939   -0.0017557   -0.0006058   -0.0272321   -0.9535985   -0.2998471
   0.0177246   -0.0016869   -0.0006482   -0.1580687   -0.9234159   -0.3497390
   0.0168590   -0.0014488   -0.0006676   -0.1923544   -0.8781733   -0.4379629
   0.0161723   -0.0014377   -0.0004924   -0.1066915   -0.8879644   -0.4473658
   0.0158893   -0.0011244   -0.0009586   -0.1090273   -0.8096464   -0.5767024
   0.0165057   -0.0007738   -0.0015401   -0.1626790   -0.6921037   -0.7032269
   0.0126015   -0.0012025   -0.0012726   -0.0064350   -0.8686617   -0.4953639
   0.0000916    0.0047909    0.0004575   -0.0853457    0.7067414   -0.7023053
   0.0008982    0.0047937    0.0004048   -0.0634166    0.7403316   -0.6692439
   0.0012359    0.0031916   -0.0022805   -0.2999394    0.8346929   -0.4618703
   0.0008246    0.0033511   -0.0016214   -0.2736403    0.8843291   -0.3782632
   0.0012566    0.0035935   -0.0012586   -0.2786772    0.8986506   -0.3387715
   0.0009873    0.0028568   -0.0026531   -0.2414082    0.7594889   -0.6040684
   0.0013498    0.0025915   -0.0030863   -0.2972548    0.6552137   -0.6945031
   0.0018598    0.0027971   -0.0031532   -0.3231496    0.6220043   -0.7132216
   0.0020493    0.0019534   -0.0038280   -0.2611122    0.4691536   -0.8436322
   0.0013927    0.0043604   -0.0001422   -0.1252768    0.7718506   -0.6233397
   0.0008018    0.0035969   -0.0010037   -0.1395521    0.8730603   -0.4672162
   0.0063610   -0.0014448   -0.0018517    0.3041397   -0.7331086   -0.6083180
   0.0023991    0.0014297   -0.0041325   -0.1348543    0.3354942   -0.9323400
   0.0025818    0.0011168   -0.0042478    0.0023769    0.2288793   -0.9734519
   0.0029386    0.0008878   -0.0042681    0.1171736    0.1114671   -0.9868361
   0.0031096    0.0003325   -0.0042556    0.1260372   -0.0688315   -0.9896347
   0.0037620    0.0005632   -0.0041600    0.1882350   -0.0626468   -0.9801239
   0.0040472    0.0000707   -0.0040532    0.1724067   -0.2167124   -0.9608911
   0.0045176   -0.0003214   -0.0038153    0.2024866   -0.3686207   -0.9072585
   0.0043768   -0.0006177   -0.0036633    0.1804359   -0.5894274   -0.7874124
   0.0052597   -0.0009272   -0.0031183    0.2847795   -0.6927273   -0.6625930
   0.0192813    0.0002127   -0.0019299    0.4038304   -0.0241692   -0.9145146
   0.0186989   -0.0003619   -0.0020970    0.2528087   -0.2438259   -0.9362888
   0.0181253   -0.0005441   -0.0020769   -0.0450345   -0.3731751   -0.9266673
   0.0174367   -0.0004785   -0.0019826   -0.1513965   -0.4657788   -0.8718539
  -0.0000256    0.0038239    0.0009481   -0.9789915   -0.1963764   -0.0548808
   0.0002481    0.0028574   -0.0001295   -0.9900285   -0.1075006   -0.0910343
  -0.0000043    0.0038876    0.0002348   -0.9533467   -0.3012165   -0.0199655
   0.0001972    0.0033086   -0.0003541   -0.9746698   -0.2051112   -0.0891529
   0.0002905    0.0023380   -0.0003628   -0.9992161    0.0066792   -0.0390204
   0.0002650    0.0016084    0.0003277   -0.9996588    0.0214920    0.0148419
   0.0002593    0.0008276    0.0009271   -0.9968660    0.0526382    0.0590548
  -0.0001316    0.0042959    0.0010020   -0.9717145   -0.2361378    0.0031577
  -0.0002616    0.0048258    0.0011635   -0.9574146   -0.2427461    0.1563058
   0.0001385   -0.0011269    0.0019938   -0.9648262    0.2223558    0.1402439
  -0.0000258   -0.0017904    0.0022089   -0.9281968    0.3193733    0.1909227
   0.0001860    0.0001654    0.0008431   -0.9816512    0.1376111    0.1320005
   0.0000255   -0.0010332    0.0012956   -0.9385253    0.2657853    0.2202917
   0.0000871   -0.0004239    0.0008565   -0.9583919    0.2135130    0.1894656
  -0.0003103   -0.0027706    0.0025057   -0.8903153    0.3359677    0.3073507
  -0.0001374   -0.0032809    0.0034245   -0.9076811    0.2149996    0.3604029
   0.0000458   -0.0035741    0.0040679   -0.9344892    0.1227013    0.3341771
   0.0001442   -0.0040443    0.0044329   -0.6690571   -0.0983034    0.7366811
   0.0016259   -0.0042182    0.0043992    0.4361306   -0.5092865    0.7419012
   0.0028014   -0.0034093    0.0030427    0.0346644   -0.9822214    0.1844980
   0.0022641   -0.0034757    0.0033772    0.5422269   -0.8032314    0.2465956
   0.0020205   -0.0035440    0.0040113    0.7280863   -0.6834293    0.0530539
   0.0036181   -0.0036013    0.0032247    0.4069467   -0.6403290    0.6514393
   0.0042016   -0.0029198    0.0021007    0.8476710   -0.5198516    0.1058687
   0.0039745   -0.0031551    0.0029955    0.7388826   -0.2205165    0.6367299
   0.0042846   -0.0033616    0.0026257    0.8877452   -0.4255753    0.1754827
  -0.0004685    0.0048717    0.0005523   -0.5620933    0.4439313   -0.6978368
   0.0048155   -0.0026147    0.0006027    0.5565218   -0.8266156    0.0836069
   0.0052763   -0.0023826    0.0002108    0.4282333   -0.8971244    0.1085544
   0.0049137   -0.0024170    0.0011309    0.5859092   -0.8093926    0.0399258
   0.0043171   -0.0028891    0.0018366    0.6072757   -0.7935025    0.0396233
   0.0038962   -0.0030117    0.0015571    0.4685077   -0.8440534    0.2609108
   0.0040773   -0.0030718    0.0011656    0.5936344   -0.7817987    0.1907592
   0.0061534   -0.0018358   -0.0014551    0.2627247   -0.8167944   -0.5136367
   0.0053394   -0.0021756   -0.0012363    0.2864458   -0.8777863   -0.3839793
   0.0048073   -0.0024622   -0.0010231    0.4003211   -0.8732074   -0.2779423
   0.0049294   -0.0025539   -0.0003750    0.4215720   -0.9037245   -0.0745591
