NORM_ASCII
858 1702
   0.0185450   -0.0039823    0.0019726   -0.5577394   -0.8157615    0.1531663
   0.0164970   -0.0019039    0.0025883   -0.0877137   -0.2059233    0.9746291
   0.0155760   -0.0011130    0.0026256   -0.0126436   -0.0036401    0.9999134
   0.0155870    0.0010008    0.0020497    0.0828206    0.4794130    0.8736727
   0.0148120    0.0012011    0.0019934    0.0705865    0.4771760    0.8759684
   0.0141650    0.0007131    0.0022589    0.0845790    0.3095404    0.9471173
   0.0150820   -0.0007288    0.0025985   -0.0133035    0.1198919    0.9926978
   0.0143270   -0.0002805    0.0025182   -0.0156852    0.1158059    0.9931480
   0.0216630   -0.0085265    0.0012829   -0.9606836   -0.1312640    0.2446566
   0.0220150   -0.0099541    0.0017857   -0.5952738   -0.0120187    0.8034331
   0.0217270   -0.0082901    0.0000741   -0.8400536   -0.1837314   -0.5104436
   0.0213130   -0.0069877   -0.0001268   -0.7895343   -0.4115717   -0.4552409
   0.0210260   -0.0066774    0.0006321   -0.8769963   -0.4770934   -0.0570915
   0.0236060   -0.0095328    0.0020862    0.5753173   -0.0715008    0.8147992
   0.0226380   -0.0104200    0.0019325   -0.2791480   -0.1569845    0.9473290
   0.0235320   -0.0102410    0.0020793    0.3106251   -0.1051525    0.9446984
   0.0238230   -0.0089632    0.0018746    0.8566296    0.0055974    0.5159015
   0.0237880   -0.0081625    0.0018821    0.8934350    0.0354713    0.4477898
   0.0239840   -0.0085692    0.0014529    0.9596552    0.0327628    0.2792644
   0.0239750   -0.0087670    0.0009468    0.9927503   -0.0231905   -0.1179367
   0.0238500   -0.0088853    0.0005396    0.9115504   -0.0115863   -0.4110251
   0.0236250   -0.0084211    0.0002041    0.7011267    0.0363442   -0.7121098
   0.0230040   -0.0081640   -0.0002231    0.5995311   -0.0243186   -0.7999820
   0.0230170   -0.0076438   -0.0002997    0.6065793   -0.0300043   -0.7944566
   0.0226820   -0.0072546   -0.0004730    0.3771453    0.0360702   -0.9254514
   0.0216650   -0.0066306   -0.0005828   -0.2563859   -0.2115866   -0.9431317
   0.0220790   -0.0073246   -0.0005768   -0.2480186   -0.1990623   -0.9480828
   0.0147070   -0.0023091   -0.0012550   -0.0441951   -0.7240071   -0.6883753
   0.0148940   -0.0025238   -0.0009544   -0.0857928   -0.8842760   -0.4590160
   0.0158470   -0.0028467   -0.0003483   -0.1361620   -0.9577557   -0.2533060
   0.0150760   -0.0027131   -0.0005552   -0.1019848   -0.9346545   -0.3406171
   0.0122610    0.0016255   -0.0010765    0.1404668    0.5503507   -0.8230329
   0.0122990    0.0000898   -0.0019145    0.2944477    0.4270431   -0.8549472
   0.0126510   -0.0000536   -0.0018294    0.3655183    0.2302617   -0.9018735
   0.0130740   -0.0005873   -0.0017515    0.3386861    0.0994742   -0.9356263
   0.0128430   -0.0013769   -0.0018494    0.3349940   -0.1957793   -0.9216558
   0.0133100   -0.0013579   -0.0017215    0.1634504   -0.1732766   -0.9712153
   0.0144830   -0.0020708   -0.0014752   -0.0072049   -0.5473359   -0.8368820
   0.0135820   -0.0017265   -0.0016278   -0.0319236   -0.5712448   -0.8201587
   0.0139240   -0.0021386   -0.0013460   -0.1591443   -0.7456849   -0.6470140
   0.0148040    0.0024313    0.0006273    0.1060938    0.9456672    0.3073397
   0.0141450    0.0023055    0.0011406    0.2092606    0.7904938    0.5756124
   0.0142660    0.0025465    0.0006398    0.3034141    0.8793879    0.3669015
   0.0139200    0.0027402    0.0003565    0.1587193    0.9873228    0.0013863
   0.0124040    0.0029537    0.0001511    0.2681265    0.8004066   -0.5361507
   0.0181950   -0.0037212    0.0014111   -0.4304066   -0.8948274   -0.1184654
   0.0177180   -0.0035017    0.0012683   -0.3101957   -0.9377958   -0.1559414
   0.0168870   -0.0031997    0.0006768   -0.2258786   -0.9656206   -0.1286688
   0.0152410    0.0014425    0.0018054    0.0891014    0.5969000    0.7973527
   0.0143650    0.0017508    0.0016739    0.1325375    0.6314769    0.7639835
   0.0173550   -0.0032319    0.0020985   -0.3501029   -0.7461952    0.5662337
   0.0171140   -0.0028168    0.0023794   -0.2456701   -0.5869424    0.7714563
   0.0168310   -0.0024406    0.0024958   -0.1838230   -0.3702198    0.9105748
   0.0178430   -0.0035436    0.0019791   -0.4712931   -0.8308390    0.2959551
   0.0161480   -0.0023970    0.0023459   -0.2173841   -0.4852769    0.8469065
   0.0156530   -0.0019211    0.0024763   -0.1797487   -0.4786061    0.8594339
   0.0154980   -0.0016761    0.0025549   -0.1183082   -0.3060396    0.9446391
   0.0146440   -0.0010472    0.0025890   -0.0895026   -0.1142468    0.9894124
   0.0141300    0.0012940    0.0020183    0.1394060    0.4833618    0.8642496
   0.0134540    0.0013930    0.0020942    0.2095544    0.4209072    0.8825667
   0.0137640   -0.0002194    0.0025160    0.0954602    0.1322929    0.9866032
   0.0131660   -0.0001279    0.0025875    0.1948342    0.1340120    0.9716380
   0.0132080    0.0005227    0.0024398    0.1834658    0.2630123    0.9471878
   0.0140980   -0.0012172    0.0024928   -0.0245076   -0.2121413    0.9769316
   0.0136450   -0.0008214    0.0025577    0.1116957   -0.1022096    0.9884722
   0.0214700   -0.0097805    0.0010867   -0.9630047    0.1509969    0.2232083
   0.0217090   -0.0099889    0.0015636   -0.7868908   -0.0018242    0.6170896
   0.0219860   -0.0103370    0.0016911   -0.6122761   -0.3002748    0.7314049
   0.0224600   -0.0078435   -0.0005916   -0.0027112   -0.1044039   -0.9945313
   0.0225210   -0.0086462   -0.0004757   -0.0117901   -0.1543319   -0.9879487
   0.0215660   -0.0091849    0.0006132   -0.8925044   -0.1333476   -0.4308762
   0.0219820   -0.0090758    0.0000453   -0.7192947   -0.1507587   -0.6781496
   0.0225270   -0.0089690   -0.0003720   -0.6189652   -0.1675624   -0.7673362
   0.0237800   -0.0103240    0.0017267    0.9094251   -0.1503351    0.3877439
   0.0239360   -0.0092079    0.0015199    0.9670915   -0.0820265    0.2408438
   0.0222830   -0.0110000    0.0016696   -0.6351812   -0.1995321    0.7461446
   0.0233830   -0.0110630    0.0020484    0.1893613   -0.1217289    0.9743328
   0.0239260   -0.0096860    0.0012136    0.9939471   -0.1090633    0.0132064
   0.0238700   -0.0098476    0.0008670    0.9726451   -0.1167750   -0.2008110
   0.0235040   -0.0115100    0.0004373    0.9043729   -0.2010982   -0.3763897
   0.0234590   -0.0101960    0.0000757    0.7308806   -0.0482833   -0.6807953
   0.0235840   -0.0092599    0.0001548    0.5893343    0.1510418   -0.7936444
   0.0228070   -0.0097524   -0.0002390    0.5826952    0.2581267   -0.7706081
   0.0228440   -0.0087596   -0.0003142    0.5070936   -0.0452186   -0.8607040
   0.0142650   -0.0024907   -0.0008619   -0.1832708   -0.8954412   -0.4057054
   0.0145660   -0.0027028   -0.0003220   -0.1736602   -0.9617043   -0.2120541
   0.0157890   -0.0029656    0.0008017   -0.2050306   -0.9786744   -0.0126077
   0.0122130    0.0007041   -0.0016278    0.1944698    0.4939159   -0.8474837
   0.0104070    0.0015281   -0.0013335    0.0788202    0.4483671   -0.8903675
   0.0114760    0.0025659   -0.0004959    0.1730059    0.6287419   -0.7581243
   0.0113310    0.0002572   -0.0020324    0.1537850    0.5410130   -0.8268344
   0.0116960   -0.0002411   -0.0022820    0.3182788    0.3958738   -0.8613841
   0.0124430   -0.0010350   -0.0020841    0.4637049   -0.0705805   -0.8831739
   0.0116280   -0.0010942   -0.0025184    0.4087313    0.0188463   -0.9124602
   0.0129290   -0.0016734   -0.0016527    0.3268933   -0.3383402   -0.8824209
   0.0123260   -0.0016976   -0.0019361    0.5041987   -0.1189333   -0.8553587
   0.0131230   -0.0019128   -0.0013761    0.5235441   -0.3502636   -0.7766704
   0.0133670   -0.0021200   -0.0010741    0.4356726   -0.5093302   -0.7421402
   0.0135740   -0.0023150   -0.0007439    0.3601647   -0.7279114   -0.5834608
   0.0136370    0.0026348    0.0008675    0.2932915    0.8390979    0.4581427
   0.0136610    0.0018890    0.0017302    0.2339158    0.5998807    0.7651318
   0.0133460    0.0023260    0.0014649    0.2922689    0.7135735    0.6367038
   0.0129060    0.0029963    0.0007193    0.3014269    0.9408100    0.1549784
   0.0116780    0.0033986    0.0003250    0.1819566    0.9683479   -0.1708628
   0.0122060    0.0032674    0.0004841    0.4032620    0.9002198   -0.1642683
   0.0124330    0.0031561    0.0006801    0.2646654    0.9383949    0.2221874
   0.0174960   -0.0034389    0.0014744   -0.3360926   -0.9397570    0.0624387
   0.0165390   -0.0030316    0.0018723   -0.3214309   -0.8241726    0.4662849
   0.0161510   -0.0027001    0.0021026   -0.2873232   -0.7001239    0.6536604
   0.0155040   -0.0023519    0.0021607   -0.2613781   -0.6382470    0.7241010
   0.0147430   -0.0023518    0.0019214   -0.1327688   -0.7040269    0.6976522
   0.0140440   -0.0020618    0.0020755   -0.0075080   -0.5819040    0.8132228
   0.0138430   -0.0017047    0.0022729   -0.0050367   -0.4030855    0.9151485
   0.0129520    0.0021261    0.0018104    0.2784262    0.5808684    0.7648991
   0.0128230    0.0010583    0.0023689    0.2189935    0.2995636    0.9286030
   0.0125420    0.0019020    0.0021097    0.2504063    0.4928610    0.8332975
   0.0129040   -0.0007369    0.0026808    0.1928441   -0.0189803    0.9810458
   0.0119790   -0.0002544    0.0029019    0.2121793    0.1578569    0.9643968
   0.0122840   -0.0006810    0.0028479    0.2385359   -0.0680083    0.9687494
   0.0135790   -0.0013175    0.0024603    0.1039983   -0.3169546    0.9427217
   0.0128990   -0.0016339    0.0025082    0.2544439   -0.2485735    0.9345959
   0.0126530   -0.0012694    0.0026611    0.2105876   -0.1847957    0.9599497
   0.0215060   -0.0099777    0.0011386   -0.9441165   -0.3222994    0.0690445
   0.0226330   -0.0093199   -0.0003845    0.4408203    0.0364488   -0.8968550
   0.0218830   -0.0103890    0.0005045   -0.9115083   -0.1081697   -0.3968022
   0.0221550   -0.0100610    0.0000142   -0.7196993   -0.0126477   -0.6941707
   0.0227320   -0.0095759   -0.0003978   -0.5833969    0.0041800   -0.8121764
   0.0234140   -0.0116270    0.0017564    0.8500982   -0.3196204    0.4185402
   0.0237480   -0.0108520    0.0012438    0.9793740   -0.1782811    0.0950914
   0.0219280   -0.0111950    0.0009262   -0.9732623   -0.0527892    0.2235482
   0.0223140   -0.0128190    0.0017461   -0.3580660   -0.3992279    0.8440414
   0.0231590   -0.0117160    0.0020417    0.4060030   -0.3142944    0.8581262
   0.0236270   -0.0115470    0.0008592    0.9613275   -0.2649299   -0.0752431
   0.0233750   -0.0115020    0.0002008    0.7788412   -0.1839216   -0.5996492
   0.0231090   -0.0121140    0.0000776    0.7006791   -0.3399830   -0.6272642
   0.0233020   -0.0122450    0.0004793    0.8432322   -0.4611175   -0.2762790
   0.0233430   -0.0122850    0.0008751    0.8934691   -0.4455828   -0.0562935
   0.0231610   -0.0113300   -0.0001046    0.6684024   -0.1505258   -0.7284093
   0.0229950   -0.0108270   -0.0002836    0.5097821   -0.0518201   -0.8587415
   0.0227100   -0.0105540   -0.0004228    0.2885878   -0.0499490   -0.9561497
   0.0228790   -0.0098413   -0.0003428    0.7323139    0.4649246   -0.4975555
   0.0141000   -0.0026595    0.0001011    0.0936287   -0.9706410   -0.2215621
   0.0156840   -0.0028930    0.0014321   -0.2870419   -0.9185551    0.2717784
   0.0150010   -0.0027619    0.0011755   -0.0717451   -0.9787838    0.1919243
   0.0149550   -0.0027961    0.0006693   -0.1573341   -0.9714577   -0.1775271
   0.0106620    0.0007958   -0.0017256    0.0237838    0.5351708   -0.8444090
   0.0099701    0.0025387   -0.0009780    0.1419174    0.5922055   -0.7931911
   0.0095563    0.0022011   -0.0011282    0.0902491    0.3844021   -0.9187438
   0.0095805    0.0016508   -0.0013124    0.1408505    0.3817912   -0.9134531
   0.0097111    0.0006160   -0.0018004   -0.0379252    0.4045408   -0.9137333
   0.0110350    0.0034514    0.0003658    0.1324747    0.9411484   -0.3109504
   0.0110510   -0.0002943   -0.0024754    0.0543377    0.5100557   -0.8584233
   0.0113040   -0.0006854   -0.0026370    0.2017417    0.2471906   -0.9477326
   0.0121000   -0.0015205   -0.0021938    0.5421443   -0.1564999   -0.8255830
   0.0109680   -0.0009905   -0.0026957    0.0367288   -0.0273989   -0.9989496
   0.0113580   -0.0015482   -0.0025784    0.2972239   -0.1188605   -0.9473807
   0.0125370   -0.0022238   -0.0019706    0.5573090    0.1275241   -0.8204537
   0.0117640   -0.0020493   -0.0023621    0.4097695    0.0202899   -0.9119634
   0.0128900   -0.0026043   -0.0017799    0.6823297    0.1046209   -0.7235196
   0.0132590   -0.0028946   -0.0012941    0.7763341    0.0948134   -0.6231499
   0.0139080   -0.0032579    0.0006192    0.9251305    0.0586655   -0.3750892
   0.0135050   -0.0032919   -0.0011648    0.8620593    0.0851689   -0.4995998
   0.0124790    0.0028684    0.0012134    0.2378602    0.8166070    0.5259045
   0.0123870    0.0025562    0.0016529    0.2459580    0.6816304    0.6891188
   0.0107970    0.0032834    0.0009113    0.1534742    0.8997553    0.4085169
   0.0113800    0.0030277    0.0012587    0.1275902    0.8178916    0.5610473
   0.0150540   -0.0026426    0.0015941   -0.1762699   -0.8607760    0.4774867
   0.0142470   -0.0027315    0.0014188    0.2310602   -0.8136795    0.5334199
   0.0140610   -0.0023843    0.0018011    0.0879840   -0.6312303    0.7705889
   0.0137060   -0.0024658    0.0017883    0.4614368   -0.3880001    0.7978296
   0.0134690   -0.0021900    0.0021227    0.3246223   -0.3507511    0.8784042
   0.0120110    0.0017263    0.0023344    0.1717847    0.4001816    0.9001915
   0.0114740    0.0000591    0.0029373    0.1487722    0.2416655    0.9588872
   0.0121290    0.0023406    0.0019271    0.1664001    0.6113014    0.7737064
   0.0113450   -0.0006057    0.0030574    0.1369486    0.0084636    0.9905420
   0.0122130   -0.0019312    0.0026205    0.1963234   -0.1525972    0.9685924
   0.0116660   -0.0010872    0.0029510    0.1730567   -0.1885722    0.9666912
   0.0128910   -0.0021448    0.0023945    0.3931473   -0.0532045    0.9179349
   0.0219370   -0.0120010   -0.0001614   -0.9003220    0.0754809   -0.4286292
   0.0236170   -0.0115170    0.0012770    0.9407087   -0.2847055    0.1844176
   0.0233530   -0.0121450    0.0012613    0.8589510   -0.4604882    0.2239506
   0.0229750   -0.0123900    0.0017258    0.6319071   -0.5824682    0.5112965
   0.0217100   -0.0131040    0.0007985   -0.9128111   -0.4078419    0.0209953
   0.0218980   -0.0131260    0.0012378   -0.5521439   -0.7097703    0.4374508
   0.0223490   -0.0130340    0.0014550    0.3511496   -0.8257199    0.4414528
   0.0222380   -0.0131860    0.0011161    0.0483749   -0.9574303    0.2845823
   0.0228190   -0.0119040   -0.0002115    0.4523742   -0.1884047   -0.8717002
   0.0225560   -0.0122890   -0.0002143    0.3251880   -0.3993526   -0.8571874
   0.0227860   -0.0125540    0.0000566    0.4065810   -0.5866404   -0.7003892
   0.0229740   -0.0126890    0.0004325    0.6552009   -0.6765693   -0.3361039
   0.0230240   -0.0127000    0.0010267    0.7273655   -0.6731068    0.1336663
   0.0223510   -0.0122550   -0.0002536    0.0472366   -0.3225346   -0.9453783
   0.0227490   -0.0095629   -0.0003645   -0.6310195   -0.0208096    0.7754878
   0.0227100   -0.0105540   -0.0004228   -0.3152933   -0.0283888    0.9485695
   0.0142740   -0.0027043    0.0005551    0.4184042   -0.8798533   -0.2253799
   0.0141920   -0.0029134    0.0009436    0.6851358   -0.7217389   -0.0983968
   0.0143850   -0.0027611    0.0008616    0.0267938   -0.7998993   -0.5995358
   0.0103160   -0.0000963   -0.0022750   -0.1753019    0.4227168   -0.8891455
   0.0094210    0.0025123   -0.0009755    0.0823961    0.5574277   -0.8261267
   0.0092769    0.0034638   -0.0002437    0.0498453    0.8126722   -0.5805854
   0.0098065    0.0036241    0.0002533    0.1061279    0.9922399   -0.0647830
   0.0080083    0.0016385   -0.0017301    0.1443288    0.3761762   -0.9152380
   0.0092276    0.0011102   -0.0016444    0.1514515    0.3232629   -0.9341111
   0.0099669   -0.0002964   -0.0022657   -0.2767233    0.2447235   -0.9292656
   0.0089937    0.0005280   -0.0018183    0.0122752    0.1708267   -0.9852246
   0.0091685    0.0000492   -0.0019433   -0.1699859    0.2401053   -0.9557480
   0.0107050   -0.0006182   -0.0026067   -0.1813712    0.2422933   -0.9530994
   0.0106460   -0.0013479   -0.0026172   -0.2617966   -0.0924809   -0.9606820
   0.0109920   -0.0020037   -0.0025402    0.0195030   -0.1639231   -0.9862803
   0.0120540   -0.0024719   -0.0023093    0.4224750    0.0509855   -0.9049394
   0.0122860   -0.0027827   -0.0021725    0.4465255    0.0408979   -0.8938358
   0.0116600   -0.0027517   -0.0024296    0.1508455   -0.1041772   -0.9830528
   0.0125540   -0.0031351   -0.0020957    0.4753762    0.0353387   -0.8790726
   0.0128560   -0.0034662   -0.0018865    0.6237618   -0.1259170   -0.7714053
   0.0131170   -0.0036928   -0.0015666    0.6850083   -0.2586565   -0.6810730
   0.0140350   -0.0035069    0.0006328    0.9991147   -0.0373639   -0.0193302
   0.0139110   -0.0033658    0.0001928    0.9665042    0.0763546   -0.2450300
   0.0140320   -0.0033380    0.0007868    0.9847928   -0.1623998   -0.0617206
   0.0137830   -0.0034469   -0.0004949    0.9541552    0.0230049   -0.2984269
   0.0133230   -0.0038780   -0.0011632    0.7536300   -0.4627201   -0.4668319
   0.0118640    0.0027259    0.0015957    0.1304445    0.7606246    0.6359516
   0.0102210    0.0028833    0.0017375    0.1979263    0.7205454    0.6645597
   0.0101490    0.0031507    0.0014282    0.2061715    0.8137038    0.5434881
   0.0098867    0.0034060    0.0010623    0.1392222    0.9077086    0.3958312
   0.0112870    0.0025672    0.0018422    0.0890973    0.6793377    0.7283968
   0.0104030    0.0026299    0.0019130    0.1527755    0.6263976    0.7643858
   0.0138050   -0.0028760    0.0015610    0.6221230   -0.3500436    0.7003088
   0.0139170   -0.0030838    0.0013024    0.7820854   -0.3492154    0.5161309
   0.0132650   -0.0035569    0.0022611    0.5985141   -0.1627428    0.7844078
   0.0131550   -0.0025366    0.0022587    0.5725207    0.0009725    0.8198897
   0.0115550    0.0020456    0.0022209    0.0635402    0.5051857    0.8606683
   0.0117070    0.0015022    0.0024573    0.0679518    0.3503165    0.9341632
   0.0110110    0.0002152    0.0029307    0.0445242    0.3221974    0.9456249
   0.0107520   -0.0002140    0.0030776    0.0423186    0.1647064    0.9854344
   0.0110040   -0.0009924    0.0030391    0.0410801   -0.2066908    0.9775435
   0.0107290   -0.0005783    0.0030944    0.0100901   -0.0585330    0.9982345
   0.0126800   -0.0026391    0.0025480    0.2325018   -0.0209682    0.9723699
   0.0120460   -0.0027049    0.0025207   -0.1023645   -0.2651171    0.9587672
   0.0117600   -0.0022524    0.0026131    0.0311349   -0.2795484    0.9596267
   0.0217530   -0.0128710   -0.0000226   -0.3234250   -0.6263109   -0.7093172
   0.0227320   -0.0095759   -0.0003978   -0.3518003   -0.0160381    0.9359377
   0.0221580   -0.0132090    0.0007526    0.0756289   -0.9826673   -0.1692490
   0.0226460   -0.0130170    0.0009910    0.5214784   -0.8513524    0.0570916
   0.0223950   -0.0128510    0.0001318    0.2958173   -0.7351303   -0.6099800
   0.0225920   -0.0130050    0.0005385    0.4344145   -0.8547809   -0.2839607
   0.0138220   -0.0034959    0.0013781    0.8950335   -0.2811201    0.3462464
   0.0102800   -0.0008435   -0.0024960   -0.3403109    0.1331725   -0.9308349
   0.0074936    0.0025233   -0.0012243    0.0059681    0.6077100   -0.7941366
   0.0084615    0.0029432   -0.0007965    0.0153874    0.7245514   -0.6890490
   0.0090369    0.0033914   -0.0003391   -0.0580624    0.8532155   -0.5183166
   0.0091714    0.0035656    0.0001238   -0.1182610    0.9810321   -0.1535914
   0.0095493    0.0035027    0.0009123    0.0173463    0.9490286    0.3147124
   0.0088893    0.0035006    0.0008137   -0.0946078    0.9776239    0.1878854
   0.0072111    0.0014267   -0.0018603    0.0101515    0.2982985   -0.9544187
   0.0083849    0.0011266   -0.0018032    0.1421059    0.1528969   -0.9779716
   0.0076074    0.0011784   -0.0018843    0.0649184    0.1744180   -0.9825294
   0.0095643   -0.0005529   -0.0021888   -0.3034345    0.0826238   -0.9492633
   0.0099238   -0.0012106   -0.0023412   -0.3890025   -0.1076154   -0.9149295
   0.0081213    0.0006693   -0.0018330    0.0722592   -0.0945996   -0.9928895
   0.0084852    0.0001269   -0.0018306   -0.1606415   -0.0089115   -0.9869726
   0.0088533   -0.0004039   -0.0019711   -0.2641321    0.0530715   -0.9630253
   0.0107100   -0.0022747   -0.0024238   -0.3016801   -0.2618996   -0.9167321
   0.0121520   -0.0034055   -0.0022434    0.2628834   -0.2424090   -0.9338791
   0.0114710   -0.0033532   -0.0022823   -0.1414227   -0.3975602   -0.9066121
   0.0125570   -0.0038372   -0.0018903    0.3501429   -0.5217564   -0.7779269
   0.0127820   -0.0040768   -0.0015621    0.4377899   -0.6752455   -0.5936190
   0.0138490   -0.0039397    0.0005746    0.8491304   -0.5004843   -0.1687987
   0.0138390   -0.0039973    0.0009457    0.8736494   -0.4478045    0.1902836
   0.0137360   -0.0038820    0.0011406    0.9066013   -0.2313027    0.3529491
   0.0136450   -0.0040849    0.0000162    0.8079189   -0.5605459   -0.1818111
   0.0135590   -0.0039748   -0.0005475    0.7548264   -0.5878178   -0.2910453
   0.0129920   -0.0043181   -0.0009683    0.4482758   -0.8437049   -0.2953149
   0.0093468    0.0031021    0.0017272    0.0876590    0.7967856    0.5978700
   0.0096820    0.0023966    0.0022768    0.1716343    0.5288700    0.8311668
   0.0094037    0.0027301    0.0021010    0.0914022    0.6143669    0.7837085
   0.0091556    0.0032642    0.0014714   -0.0108959    0.8791032    0.4765070
   0.0109780    0.0022564    0.0021082    0.0754593    0.5150314    0.8538434
   0.0103890    0.0021040    0.0022590    0.1481740    0.4091442    0.9003585
   0.0134280   -0.0038653    0.0019961    0.6480981   -0.3817885    0.6589434
   0.0130200   -0.0031463    0.0024396    0.2949706   -0.1242901    0.9473881
   0.0128470   -0.0037084    0.0022715   -0.0750681   -0.5853045    0.8073311
   0.0106120    0.0016545    0.0024063    0.0456324    0.3722360    0.9270157
   0.0106010    0.0007979    0.0027226    0.0517028    0.3460019    0.9368082
   0.0101030    0.0001944    0.0029758    0.0282339    0.2684910    0.9628683
   0.0100330   -0.0004863    0.0030830   -0.0257675   -0.0165786    0.9995305
   0.0106880   -0.0015257    0.0028805   -0.0510126   -0.3562183    0.9330092
   0.0103790   -0.0010047    0.0030231   -0.0547611   -0.2417074    0.9688028
   0.0123990   -0.0032108    0.0024543   -0.1583591   -0.3847486    0.9093354
   0.0116000   -0.0031457    0.0021824   -0.2539022   -0.5998904    0.7587260
   0.0113830   -0.0027018    0.0024094   -0.1245458   -0.4755267    0.8708402
   0.0136130   -0.0042154    0.0012273    0.6502883   -0.7050419    0.2829154
   0.0134110   -0.0040941    0.0018064    0.6213388   -0.6196408    0.4795658
   0.0064584    0.0017766   -0.0016712   -0.1308004    0.4513686   -0.8826991
   0.0064812    0.0025549   -0.0010782   -0.1897709    0.7241875   -0.6629778
   0.0072955    0.0030467   -0.0006249   -0.0633807    0.8628586   -0.5014558
   0.0079649    0.0033306   -0.0001892   -0.1099808    0.9214877   -0.3725113
   0.0085123    0.0035001    0.0003988   -0.1300747    0.9869604   -0.0948140
   0.0085331    0.0032680    0.0013535   -0.1066325    0.8889321    0.4454540
   0.0073178    0.0032191    0.0010147   -0.2212245    0.9220428    0.3176424
   0.0073964    0.0033424    0.0005305   -0.1176587    0.9896826    0.0817610
   0.0064339    0.0010944   -0.0019110   -0.0899286    0.1816832   -0.9792365
   0.0071237    0.0007340   -0.0019257    0.0116480   -0.0042921   -0.9999229
   0.0078713    0.0009360   -0.0019069    0.1003894   -0.0102668   -0.9948953
   0.0092456   -0.0012150   -0.0020315   -0.3492345   -0.1406334   -0.9264219
   0.0095442   -0.0022754   -0.0018475   -0.3833686   -0.3233181   -0.8651554
   0.0090580   -0.0019831   -0.0017467   -0.3103475   -0.2709372   -0.9111956
   0.0073323    0.0005016   -0.0018853    0.0966772   -0.2631792   -0.9598907
   0.0077291    0.0003946   -0.0017917    0.0143227   -0.2431878   -0.9698735
   0.0083800   -0.0005717   -0.0018135   -0.3496161   -0.0749103   -0.9338935
   0.0074570    0.0000825   -0.0016953    0.0171210   -0.2757752   -0.9610697
   0.0078149   -0.0005028   -0.0015849   -0.1798620   -0.1509368   -0.9720431
   0.0100440   -0.0026402   -0.0019593   -0.4350646   -0.3970715   -0.8081170
   0.0106730   -0.0031312   -0.0021100   -0.4143392   -0.4851560   -0.7700303
   0.0119160   -0.0038320   -0.0020310   -0.0168971   -0.6312836   -0.7753680
   0.0113340   -0.0038387   -0.0019001   -0.3072289   -0.6711064   -0.6747048
   0.0121630   -0.0041587   -0.0017022    0.0452026   -0.7902136   -0.6111622
   0.0123590   -0.0043687   -0.0013551    0.1068443   -0.9163513   -0.3858556
   0.0134970   -0.0043095    0.0008067    0.4804124   -0.8770143   -0.0070576
   0.0131750   -0.0043728   -0.0002757    0.4180262   -0.9004814   -0.1199476
   0.0125630   -0.0045032   -0.0007630    0.1485581   -0.9792038   -0.1381680
   0.0127250   -0.0044842   -0.0000877    0.0949742   -0.9953673    0.0149636
   0.0086138    0.0029354    0.0018892   -0.0805513    0.7431110    0.6643023
   0.0093296    0.0020867    0.0024663    0.0983781    0.3746759    0.9219218
   0.0090126    0.0024896    0.0022962   -0.0188611    0.5074743    0.8614604
   0.0097426    0.0011205    0.0026760    0.0717275    0.2965089    0.9523327
   0.0130790   -0.0041649    0.0018630    0.0565467   -0.8502702    0.5233002
   0.0119570   -0.0035589    0.0019505   -0.3399899   -0.7077963    0.6192183
   0.0126990   -0.0041784    0.0015489   -0.3282855   -0.8548876    0.4017410
   0.0097130   -0.0000542    0.0030472    0.0107554    0.1815626    0.9833206
   0.0095601   -0.0011704    0.0029213   -0.0040073   -0.2773707    0.9607546
   0.0094550   -0.0005126    0.0030574   -0.0081895   -0.0885965    0.9960339
   0.0104880   -0.0024187    0.0024516   -0.0979224   -0.4879406    0.8673668
   0.0097367   -0.0020213    0.0025774   -0.0437654   -0.4043249    0.9135677
   0.0109160   -0.0031839    0.0019592   -0.1444422   -0.7314676    0.6664019
   0.0111750   -0.0034311    0.0016565   -0.2653478   -0.8331579    0.4852201
   0.0106980   -0.0028611    0.0022085   -0.1211185   -0.6268225    0.7696907
   0.0130600   -0.0043280    0.0013236    0.0022456   -0.9768021    0.2141320
   0.0061362    0.0019699   -0.0014869   -0.2657755    0.5924613   -0.7604952
   0.0054957    0.0013157   -0.0016243   -0.3163589    0.3885621   -0.8654112
   0.0055816    0.0008659   -0.0018011   -0.2744080    0.2107345   -0.9382384
   0.0065279    0.0029482   -0.0004505   -0.3124128    0.8636747   -0.3955557
   0.0055724    0.0024706   -0.0006829   -0.3967979    0.7799804   -0.4839235
   0.0072136    0.0033531    0.0001163   -0.1238727    0.9836279   -0.1308879
   0.0073545    0.0032993    0.0000978    0.0345580    0.9768861   -0.2109484
   0.0078259    0.0027581    0.0019130   -0.1645772    0.6912196    0.7036546
   0.0077686    0.0031143    0.0014425   -0.1795406    0.8350212    0.5201008
   0.0069018    0.0029422    0.0013042   -0.3250645    0.8329184    0.4478617
   0.0066808    0.0030916    0.0006420   -0.3562921    0.9128462    0.1994185
   0.0059489    0.0005632   -0.0019046   -0.1237773   -0.0107344   -0.9922520
   0.0061229    0.0003373   -0.0018962    0.0252217   -0.1733589   -0.9845357
   0.0085672   -0.0016966   -0.0016675   -0.3246925   -0.1897367   -0.9265931
   0.0088911   -0.0025484   -0.0014870   -0.2666344   -0.4150909   -0.8698308
   0.0091912   -0.0029524   -0.0013797   -0.3127534   -0.5065804   -0.8034684
   0.0080609   -0.0018997   -0.0014814   -0.1858446   -0.1883137   -0.9643649
   0.0080918   -0.0025070   -0.0013236   -0.2491548   -0.4274755   -0.8690147
   0.0070304   -0.0002806   -0.0016398    0.1024789   -0.2382926   -0.9657716
   0.0073370   -0.0007531   -0.0015091    0.0327892   -0.1392504   -0.9897142
   0.0076397   -0.0011600   -0.0014892   -0.0712646   -0.0753120   -0.9946102
   0.0102220   -0.0031651   -0.0017843   -0.4400688   -0.6202727   -0.6493082
   0.0095482   -0.0031800   -0.0013548   -0.3427723   -0.6163872   -0.7089245
   0.0107220   -0.0038232   -0.0014245   -0.4615789   -0.7966332   -0.3902825
   0.0115500   -0.0041618   -0.0015552   -0.2740191   -0.8477168   -0.4541913
   0.0117830   -0.0043716   -0.0011931   -0.2236770   -0.9318252   -0.2857802
   0.0120540   -0.0044945   -0.0007317   -0.1943606   -0.9808912   -0.0087364
   0.0129060   -0.0044258    0.0006802    0.0634234   -0.9943735    0.0848458
   0.0123300   -0.0043841    0.0003730   -0.2647435   -0.9431987    0.2007166
   0.0083308    0.0025534    0.0021813   -0.1238605    0.5646555    0.8159796
   0.0088682    0.0018602    0.0025540   -0.0116872    0.2962046    0.9550530
   0.0083990    0.0020743    0.0024456   -0.1087671    0.3971967    0.9112653
   0.0087374    0.0012319    0.0027046    0.0018620    0.2665547    0.9638180
   0.0120210   -0.0038490    0.0015648   -0.3697908   -0.8153757    0.4454405
   0.0123190   -0.0041789    0.0011124   -0.3845296   -0.8738334    0.2975772
   0.0080643   -0.0002406    0.0030524   -0.0357286    0.0641655    0.9972995
   0.0085086    0.0003044    0.0029596   -0.0075036    0.2221650    0.9749802
   0.0085594   -0.0011043    0.0029796    0.0338032   -0.2364091    0.9710654
   0.0089181   -0.0016801    0.0027620    0.0762347   -0.3794770    0.9220550
   0.0079092   -0.0008935    0.0030095   -0.0828092   -0.1592343    0.9837617
   0.0096762   -0.0029410    0.0019770   -0.0360413   -0.6706579    0.7408906
   0.0092898   -0.0023626    0.0023775    0.0493590   -0.5370100    0.8421306
   0.0098318   -0.0032068    0.0016940   -0.0747847   -0.7626617    0.6424597
   0.0100720   -0.0033939    0.0014462   -0.0834881   -0.9225683    0.3766928
   0.0111360   -0.0036053    0.0011660   -0.2439536   -0.9323294    0.2669244
   0.0054637    0.0021043   -0.0010620   -0.3830486    0.6597162   -0.6465666
   0.0054556    0.0017394   -0.0013681   -0.3932485    0.5397410   -0.7443355
   0.0048472    0.0011045   -0.0013955   -0.3813989    0.3888463   -0.8386498
   0.0047772   -0.0002440   -0.0016209   -0.2175458   -0.0116326   -0.9759808
   0.0046303    0.0004600   -0.0015296   -0.2697536    0.2136149   -0.9389365
   0.0067918    0.0031661    0.0002862   -0.3606241    0.9322313   -0.0299171
   0.0058346    0.0027978   -0.0002350   -0.4669415    0.8553529   -0.2243592
   0.0057258    0.0026768   -0.0002887   -0.4736739    0.8408483   -0.2619297
   0.0049866    0.0023579   -0.0001559   -0.3854057    0.8811915   -0.2737954
   0.0048865    0.0021621   -0.0004594   -0.5070178    0.7073961   -0.4924670
   0.0050038    0.0018414   -0.0009846   -0.4843717    0.6906419   -0.5370269
   0.0078677    0.0023257    0.0022354   -0.1524588    0.4534507    0.8781451
   0.0071927    0.0027235    0.0017762   -0.2568754    0.7107857    0.6548273
   0.0070121    0.0021801    0.0021354   -0.2245343    0.5483465    0.8055436
   0.0067733    0.0027269    0.0015563   -0.3383969    0.7193960    0.6065945
   0.0058266    0.0026279    0.0009468   -0.3679976    0.8456816    0.3865234
   0.0055771    0.0022226    0.0014254   -0.3333407    0.7736299    0.5388700
   0.0059038    0.0028308    0.0002217   -0.4505857    0.8906015    0.0616558
   0.0052629    0.0024653    0.0006915   -0.3134135    0.9198148    0.2360354
   0.0054718   -0.0003338   -0.0017491   -0.0932464   -0.1344039   -0.9865296
   0.0064471   -0.0002999   -0.0017318    0.0916357   -0.1805345   -0.9792907
   0.0082519   -0.0029137   -0.0010968   -0.2849874   -0.5727754   -0.7685769
   0.0083114   -0.0032574   -0.0007988   -0.2929155   -0.7650512   -0.5734956
   0.0075240   -0.0018646   -0.0014512   -0.1029350   -0.2439428   -0.9643113
   0.0077862   -0.0022024   -0.0013532   -0.1813604   -0.3433644   -0.9215255
   0.0073851   -0.0025169   -0.0011054   -0.2493519   -0.5962229   -0.7631133
   0.0079518   -0.0030666   -0.0008183   -0.3690439   -0.7488371   -0.5504994
   0.0061359   -0.0008670   -0.0016702    0.0906347   -0.1411862   -0.9858255
   0.0073328   -0.0013114   -0.0014740    0.0234904   -0.1100429   -0.9936492
   0.0101320   -0.0035872   -0.0011265   -0.3794400   -0.8684349   -0.3191335
   0.0093041   -0.0034078   -0.0009524   -0.2412020   -0.8765106   -0.4165942
   0.0107440   -0.0039074   -0.0007882   -0.4155102   -0.9094924    0.0132249
   0.0111260   -0.0041049   -0.0010087   -0.4246791   -0.9025323   -0.0712961
   0.0115570   -0.0042507   -0.0003962   -0.4099108   -0.8976763    0.1617110
   0.0109990   -0.0038012    0.0001936   -0.3247383   -0.9236940    0.2033086
   0.0079587    0.0014232    0.0026106   -0.0790897    0.3117654    0.9468618
   0.0076002    0.0002812    0.0029552   -0.0434698    0.2140870    0.9758469
   0.0073387   -0.0002190    0.0029890   -0.1313762   -0.0049308    0.9913203
   0.0083381   -0.0016090    0.0028554    0.0193293   -0.2994285    0.9539229
   0.0082348   -0.0022335    0.0026190    0.0360390   -0.4262364    0.9038936
   0.0079059   -0.0019077    0.0027373   -0.1697128   -0.3393267    0.9252324
   0.0072020   -0.0009382    0.0028680   -0.2315203   -0.2401697    0.9427178
   0.0086139   -0.0031421    0.0018674    0.2080017   -0.7130821    0.6695142
   0.0091587   -0.0032516    0.0016368    0.0567948   -0.8403297    0.5390921
   0.0088510   -0.0026408    0.0022532    0.2251802   -0.5763629    0.7855569
   0.0105020   -0.0035636    0.0009066   -0.1503128   -0.9718293    0.1815320
   0.0097458   -0.0035359    0.0005140   -0.0635019   -0.9900304    0.1257269
   0.0089537   -0.0034687    0.0011088    0.1011300   -0.9718712    0.2126950
   0.0045392    0.0016402   -0.0009039   -0.3714299    0.6839632   -0.6278807
   0.0042709    0.0010739   -0.0011948   -0.2109099    0.4476457   -0.8689824
   0.0043278   -0.0001384   -0.0015359   -0.1228291    0.0454899   -0.9913847
   0.0042457   -0.0007934   -0.0014620   -0.1655868   -0.2512698   -0.9536480
   0.0039756    0.0005178   -0.0013633   -0.0756781    0.3032526   -0.9499004
   0.0049739    0.0024238    0.0003124   -0.3203875    0.9455712   -0.0569815
   0.0044063    0.0022364    0.0000642   -0.1665614    0.8992525   -0.4044777
   0.0045586    0.0017842   -0.0004983   -0.3180740    0.7852047   -0.5313026
   0.0072688    0.0007106    0.0028250   -0.0728156    0.3098142    0.9480048
   0.0066032    0.0009454    0.0026768   -0.1564981    0.3407050    0.9270536
   0.0063520    0.0014353    0.0023948   -0.2128368    0.4701903    0.8565171
   0.0060972    0.0019027    0.0020128   -0.2780487    0.5878708    0.7596689
   0.0057874    0.0020363    0.0017498   -0.2939895    0.6817112    0.6699552
   0.0051989    0.0022474    0.0011683   -0.2558737    0.8372710    0.4832245
   0.0049698    0.0018474    0.0016416   -0.1998900    0.7375350    0.6450473
   0.0045029    0.0022023    0.0009587   -0.1243908    0.9214616    0.3680156
   0.0044027    0.0023009    0.0004500   -0.0613358    0.9904197    0.1237204
   0.0057655   -0.0013039   -0.0016098   -0.0491678   -0.2774339   -0.9594858
   0.0049076   -0.0008995   -0.0015760   -0.1840188   -0.2215363   -0.9576318
   0.0084460   -0.0034575   -0.0003431   -0.2236179   -0.9467538   -0.2316295
   0.0070863   -0.0021188   -0.0013154   -0.0908183   -0.4438248   -0.8914996
   0.0068761   -0.0024978   -0.0008946   -0.2855497   -0.8121082   -0.5088632
   0.0070509   -0.0027968   -0.0004800   -0.3957133   -0.8265971   -0.4001852
   0.0074809   -0.0031992   -0.0000980   -0.3861297   -0.8657990   -0.3182703
   0.0066578   -0.0015657   -0.0015225    0.0633757   -0.2769043   -0.9588053
   0.0101530   -0.0036994   -0.0006322   -0.2333404   -0.9711838   -0.0485208
   0.0090483   -0.0035037   -0.0004824   -0.1553882   -0.9730302   -0.1704899
   0.0102090   -0.0036380    0.0001199   -0.1524514   -0.9809570    0.1203406
   0.0069239    0.0003459    0.0028895   -0.1333681    0.1668224    0.9769254
   0.0067389   -0.0001828    0.0028866   -0.2133536   -0.0475431    0.9758176
   0.0080686   -0.0027312    0.0024072   -0.0094866   -0.4463577    0.8948043
   0.0074837   -0.0023321    0.0024333   -0.2429420   -0.3843538    0.8906466
   0.0063791   -0.0021619    0.0021396   -0.3286508   -0.3561822    0.8747131
   0.0062884   -0.0010587    0.0025458   -0.3329131   -0.3187139    0.8874629
   0.0063279   -0.0005770    0.0027197   -0.3029360   -0.2200296    0.9272630
   0.0086542   -0.0034060    0.0015175    0.2475168   -0.8457797    0.4726437
   0.0080237   -0.0031903    0.0021222    0.1560961   -0.6495928    0.7440854
   0.0082047   -0.0035066    0.0016599    0.2717819   -0.8709570    0.4093513
   0.0095302   -0.0035878   -0.0001669   -0.0911118   -0.9955545    0.0238739
   0.0089633   -0.0035180    0.0005388    0.0137491   -0.9984105    0.0546567
   0.0082940   -0.0035542    0.0009956    0.0890593   -0.9960240    0.0021392
   0.0040820    0.0014527   -0.0009063   -0.0944555    0.6754690   -0.7313138
   0.0036520    0.0010668   -0.0011223   -0.0117362    0.4681906   -0.8835496
   0.0036273    0.0001059   -0.0014740    0.0225527    0.1273303   -0.9916039
   0.0035132   -0.0006432   -0.0014511   -0.0511155   -0.2441516   -0.9683890
   0.0048103   -0.0014878   -0.0013571   -0.3148540   -0.4897075   -0.8130520
   0.0039292   -0.0010904   -0.0012981   -0.1419244   -0.5378358   -0.8310176
   0.0041982   -0.0013512   -0.0011744   -0.2477855   -0.6005494   -0.7602255
   0.0029044    0.0008858   -0.0012787    0.0924527    0.3793586   -0.9206191
   0.0036334    0.0024320    0.0003332    0.1611477    0.9854103   -0.0547543
   0.0039315    0.0019030   -0.0004545    0.1240006    0.7347522   -0.6669055
   0.0061612    0.0004702    0.0027273   -0.2251214    0.1618581    0.9607925
   0.0053887    0.0010171    0.0023662   -0.2115322    0.3914325    0.8955639
   0.0050775    0.0013615    0.0021040   -0.2043936    0.5770480    0.7907204
   0.0045551    0.0019169    0.0014564   -0.1040718    0.7889373    0.6055964
   0.0045991    0.0015593    0.0018676   -0.1325658    0.6332371    0.7625202
   0.0040424    0.0021852    0.0010143   -0.0023175    0.9201273    0.3916126
   0.0037307    0.0022856    0.0005881    0.0841729    0.9366198    0.3400856
   0.0062214   -0.0018055   -0.0014555   -0.0685612   -0.4570322   -0.8868038
   0.0054273   -0.0015795   -0.0015047   -0.1652170   -0.5133230   -0.8421418
   0.0058511   -0.0019794   -0.0012547   -0.1822416   -0.7462567   -0.6402257
   0.0076108   -0.0034567    0.0006791   -0.2907126   -0.9220652   -0.2555034
   0.0081298   -0.0035164    0.0005047   -0.0714162   -0.9928669   -0.0954729
   0.0064589   -0.0020785   -0.0012934   -0.1088915   -0.6588201   -0.7443780
   0.0061264   -0.0022596   -0.0008462   -0.2846987   -0.8687706   -0.4051966
   0.0054062   -0.0021342   -0.0004104   -0.3045422   -0.9189480   -0.2505765
   0.0062954   -0.0025804   -0.0001929   -0.3930307   -0.8707698   -0.2954435
   0.0063007   -0.0028388    0.0007037   -0.4484239   -0.8419748   -0.2999908
   0.0068563   -0.0030732    0.0005213   -0.4370015   -0.8392459   -0.3235676
   0.0058476   -0.0000134    0.0026619   -0.2988663   -0.0923154    0.9498194
   0.0072764   -0.0031125    0.0020800   -0.2221269   -0.4522356    0.8637955
   0.0066033   -0.0023812    0.0020951   -0.2692709   -0.3575675    0.8942252
   0.0061606   -0.0014775    0.0023135   -0.3737113   -0.3766976    0.8476077
   0.0061533   -0.0028533    0.0018114   -0.4945575   -0.4022903    0.7704384
   0.0057130   -0.0021362    0.0018035   -0.4892449   -0.4196060    0.7645719
   0.0051332   -0.0003869    0.0023631   -0.2643915   -0.2621532    0.9281017
   0.0053801   -0.0012839    0.0021072   -0.3107328   -0.4145121    0.8553507
   0.0076377   -0.0036426    0.0017064    0.0706403   -0.9169360    0.3927319
   0.0075730   -0.0034853    0.0018956   -0.1164343   -0.7265755    0.6771492
   0.0073241   -0.0036344    0.0015300   -0.1857447   -0.9819783    0.0348927
   0.0033813    0.0014819   -0.0009029    0.0886791    0.5477256   -0.8319451
   0.0024923    0.0004244   -0.0014627    0.0256559    0.3467519   -0.9376059
   0.0029523    0.0000254   -0.0014934    0.0503320    0.0074529   -0.9987047
   0.0032704   -0.0003026   -0.0014961    0.0017379   -0.0652837   -0.9978652
   0.0029560   -0.0006216   -0.0014354   -0.0289342   -0.3592947   -0.9327755
   0.0033467   -0.0010831   -0.0011938   -0.1238917   -0.6240361   -0.7715114
   0.0049971   -0.0017400   -0.0012497   -0.3227900   -0.7603457   -0.5636319
   0.0042714   -0.0015821   -0.0009413   -0.2903015   -0.8090341   -0.5110664
   0.0036030   -0.0014517   -0.0008619   -0.1835751   -0.7809623   -0.5969909
   0.0016003    0.0008361   -0.0014932    0.0592649    0.3332236   -0.9409834
   0.0024520    0.0018702   -0.0008512    0.1744723    0.4994113   -0.8486152
   0.0034275    0.0021368    0.0011154    0.0621358    0.8647647    0.4983184
   0.0029736    0.0025218    0.0004367    0.2114327    0.9581164    0.1931557
   0.0030967    0.0020738   -0.0005354    0.3513127    0.7589885   -0.5481932
   0.0052623    0.0005756    0.0024614   -0.2326680    0.1326504    0.9634674
   0.0045637    0.0008639    0.0022593   -0.1547753    0.3426669    0.9266197
   0.0041557    0.0013496    0.0019816   -0.0809916    0.5663721    0.8201604
   0.0037155    0.0018006    0.0015538   -0.0337543    0.7245015    0.6884462
   0.0052860   -0.0019805   -0.0010076   -0.2534606   -0.8734401   -0.4157646
   0.0067749   -0.0034011    0.0013813   -0.3822302   -0.8943257   -0.2325545
   0.0043436   -0.0018886   -0.0001034   -0.1954175   -0.9474123   -0.2534204
   0.0047370   -0.0019355   -0.0003293   -0.2994443   -0.9103369   -0.2856920
   0.0049239   -0.0021836    0.0007045   -0.2269738   -0.9661967   -0.1222577
   0.0055457   -0.0023383    0.0003579   -0.4048410   -0.8929566   -0.1968050
   0.0059362   -0.0027968    0.0011243   -0.5418588   -0.7697941   -0.3373517
   0.0052928   -0.0024146    0.0010641   -0.5569187   -0.8298407    0.0347274
   0.0063541   -0.0031444    0.0013301   -0.4185651   -0.8239275   -0.3820297
   0.0050712    0.0001776    0.0024321   -0.2395559   -0.1005047    0.9656665
   0.0065376   -0.0033703    0.0016940   -0.4095619   -0.8500301    0.3312218
   0.0070912   -0.0035296    0.0017269   -0.2572098   -0.8696103    0.4214512
   0.0063660   -0.0030887    0.0017828   -0.3444943   -0.4156301    0.8417691
   0.0061501   -0.0031798    0.0015961   -0.5654638   -0.7586454    0.3235860
   0.0059025   -0.0029896    0.0013998   -0.6976063   -0.7142638   -0.0563265
   0.0056599   -0.0026202    0.0014522   -0.7294380   -0.5918130    0.3430417
   0.0050967   -0.0018151    0.0016573   -0.3672955   -0.5841797    0.7237597
   0.0054124   -0.0023587    0.0013798   -0.5860099   -0.6094179    0.5340433
   0.0048117   -0.0008863    0.0021083   -0.1937187   -0.3972410    0.8970355
   0.0041712   -0.0009493    0.0019862   -0.1300672   -0.3551784    0.9257056
   0.0046802   -0.0013976    0.0018187   -0.1741869   -0.5541894    0.8139613
   0.0014961    0.0000670   -0.0016301    0.0082991    0.2366792   -0.9715524
   0.0007031   -0.0002674   -0.0017292   -0.3177005    0.1728037   -0.9323118
   0.0026279   -0.0002534   -0.0015216    0.0617740   -0.1562541   -0.9857833
   0.0016802   -0.0002256   -0.0015787    0.0917666   -0.2415981   -0.9660276
   0.0023016   -0.0006052   -0.0014226    0.0025443   -0.4078176   -0.9130599
   0.0022453   -0.0008532   -0.0012591   -0.0140674   -0.6302039   -0.7763022
   0.0027146   -0.0011426   -0.0010322   -0.0806922   -0.6856201   -0.7234735
   0.0028064   -0.0013590   -0.0007858   -0.1001929   -0.7948011   -0.5985421
   0.0039831   -0.0017205   -0.0004728   -0.1652350   -0.9233684   -0.3465373
   0.0028550   -0.0016640   -0.0002801   -0.1012211   -0.9043651   -0.4145819
   0.0013283    0.0022037   -0.0008629    0.0628839    0.4905597   -0.8691357
   0.0025343    0.0025600   -0.0004292    0.1759897    0.8750520   -0.4509009
   0.0027542    0.0021498    0.0011388    0.0291986    0.8115335    0.5835759
   0.0033052    0.0016047    0.0017234   -0.0402864    0.6328917    0.7731915
   0.0022347    0.0026368    0.0003698   -0.0093982    0.9607888    0.2771221
   0.0026835    0.0026814    0.0001032    0.3266235    0.9387280   -0.1100314
   0.0043683    0.0003623    0.0022828   -0.1658022    0.0014955    0.9861579
   0.0038952    0.0008886    0.0021651   -0.1109556    0.2508293    0.9616514
   0.0036248    0.0012275    0.0020014   -0.0940227    0.4943891    0.8641407
   0.0034005   -0.0019712    0.0005304   -0.1061831   -0.9747367   -0.1965031
   0.0045033   -0.0021307    0.0007621   -0.1592959   -0.9871181   -0.0149228
   0.0049898   -0.0022226    0.0010239   -0.3603384   -0.9326377    0.0185263
   0.0046876   -0.0021561    0.0009781   -0.2439712   -0.9633149    0.1118145
   0.0051265   -0.0022118    0.0012762   -0.4011310   -0.8211441    0.4059757
   0.0039203   -0.0005288    0.0020779   -0.1233884   -0.2018617    0.9716106
   0.0042175   -0.0018543    0.0013090   -0.1739037   -0.8100160    0.5600282
   0.0031788   -0.0013201    0.0016934   -0.0796373   -0.5865711    0.8059728
   0.0031570   -0.0009152    0.0019231   -0.0769919   -0.3153450    0.9458487
   0.0041956   -0.0015219    0.0016379   -0.0922771   -0.6945486    0.7135035
   0.0007594   -0.0006766   -0.0015071   -0.3243411   -0.4783804   -0.8160607
   0.0003817    0.0015964   -0.0008949   -0.7236253    0.1527605   -0.6730755
   0.0016256   -0.0005903   -0.0014379    0.0505554   -0.5009721   -0.8639856
   0.0013542   -0.0009555   -0.0011840    0.0425811   -0.7011460   -0.7117451
   0.0016937   -0.0013616   -0.0006747   -0.0277095   -0.8271702   -0.5612678
   0.0023177   -0.0017055   -0.0000235   -0.0711395   -0.9501244   -0.3036492
   0.0014212    0.0029178   -0.0001756    0.4723735    0.8702572   -0.1396985
   0.0012777    0.0030318   -0.0003110    0.3552772    0.9336291   -0.0459863
   0.0001147    0.0031436   -0.0002017   -0.7184355    0.6029979   -0.3467620
   0.0013993    0.0025388    0.0006783    0.1449982    0.8794863    0.4532983
   0.0022178    0.0022110    0.0010546    0.0232725    0.7991084    0.6007364
   0.0023808    0.0019164    0.0014018   -0.0159740    0.6718111    0.7405503
   0.0032525    0.0008863    0.0020880   -0.1054271    0.3102335    0.9447964
   0.0028297    0.0013676    0.0018558   -0.0553470    0.4777497    0.8767508
   0.0035687   -0.0000301    0.0021375   -0.0966425   -0.1268800    0.9871989
   0.0032224    0.0004998    0.0021245   -0.1102455    0.0588005    0.9921635
   0.0028832   -0.0018852    0.0008802   -0.1448816   -0.9643888    0.2212771
   0.0025872   -0.0018500    0.0004786   -0.1146501   -0.9911869   -0.0663619
   0.0040663   -0.0020644    0.0008284   -0.1001573   -0.9829936    0.1539221
   0.0038492   -0.0020590    0.0007901   -0.0936223   -0.9883921    0.1196490
   0.0044409   -0.0020801    0.0009385   -0.2522300   -0.9203308    0.2989501
   0.0027078   -0.0016710    0.0012927   -0.1027156   -0.8236368    0.5577382
   0.0016309   -0.0013404    0.0015396   -0.0844218   -0.6980481    0.7110568
   0.0020568   -0.0010180    0.0017926   -0.0476005   -0.4071912    0.9121017
   0.0023981   -0.0003229    0.0019959   -0.0498565   -0.1757771    0.9831667
   0.0002008   -0.0014584   -0.0008016   -0.7147080   -0.4462129   -0.5385968
   0.0002782   -0.0001516   -0.0008418   -0.7988958    0.0289499   -0.6007724
   0.0010283   -0.0013200   -0.0007749    0.0771115   -0.8228739   -0.5629675
   0.0013402   -0.0015457   -0.0003272    0.0288469   -0.9159622   -0.4002263
