NORM_ASCII
835 1665
   0.0166482   -0.0006781   -0.0046543   -0.1638661   -0.4426268   -0.8816061
   0.0172120   -0.0006411   -0.0048214   -0.2666908   -0.3091915   -0.9128398
   0.0167367   -0.0007290   -0.0046146   -0.1985022   -0.3791878   -0.9037773
   0.0175073   -0.0009922   -0.0047840   -0.2766078   -0.2935445   -0.9150517
   0.0179868   -0.0003857   -0.0049198   -0.0145834    0.0571046   -0.9982617
   0.0180790    0.0000078   -0.0048196    0.0743272    0.2603713   -0.9626434
   0.0169895   -0.0008877   -0.0046749   -0.3247182   -0.4960692   -0.8052785
   0.0180352   -0.0018816   -0.0040292   -0.5582312   -0.6861347   -0.4664731
   0.0179295   -0.0013915   -0.0047728   -0.4336559   -0.5688837   -0.6987946
   0.0176237   -0.0022019   -0.0033675   -0.5524614   -0.6719039   -0.4932864
   0.0171308   -0.0020042   -0.0030871   -0.5315410   -0.7409265   -0.4104778
   0.0170338   -0.0021333   -0.0025394   -0.4965099   -0.8657479    0.0629163
   0.0162020    0.0018384   -0.0041045    0.1111672    0.5698723   -0.8141790
   0.0156719    0.0020654   -0.0039555    0.0518548    0.7870884   -0.6146567
   0.0105245   -0.0040392   -0.0038954   -0.1555755   -0.7869673   -0.5970584
   0.0104070   -0.0042799   -0.0032291   -0.0768109   -0.9803009   -0.1819621
   0.0101838   -0.0041700   -0.0035472   -0.1884670   -0.8918110   -0.4112826
   0.0119083   -0.0033271   -0.0013956    0.5404234   -0.6014762    0.5883612
   0.0116086   -0.0030700   -0.0009397    0.5538185   -0.4465041    0.7027938
   0.0111824   -0.0025408   -0.0003446    0.5110950   -0.3459527    0.7868282
   0.0115465   -0.0015488   -0.0002628    0.4759846   -0.2215008    0.8511029
   0.0124023   -0.0009039   -0.0005622    0.4575058   -0.2908512    0.8402940
   0.0103468   -0.0043147   -0.0026503   -0.0069695   -0.9994339    0.0329147
   0.0101682   -0.0042389   -0.0020908   -0.0494684   -0.9714849    0.2318833
   0.0105207   -0.0040389   -0.0015887    0.1146660   -0.9096436    0.3992496
   0.0109396   -0.0037744   -0.0012717    0.2633242   -0.8129823    0.5193459
   0.0110593   -0.0032628   -0.0007009    0.4088841   -0.6162197    0.6731175
   0.0092067   -0.0037934   -0.0033645   -0.5134284   -0.7088484   -0.4836581
   0.0096813   -0.0041060   -0.0033307   -0.3442180   -0.8636645   -0.3682357
   0.0070848   -0.0024132   -0.0029548   -0.3338328   -0.5366149   -0.7749839
   0.0076439   -0.0027834   -0.0029555   -0.4351877   -0.6176146   -0.6551060
   0.0066100   -0.0010085   -0.0033037   -0.1680063    0.0390510   -0.9850121
   0.0063220   -0.0016739   -0.0030871   -0.2672701   -0.3536758   -0.8963705
   0.0061705   -0.0010011   -0.0032242   -0.2074981   -0.0782824   -0.9750981
   0.0074856   -0.0006488   -0.0034001   -0.2149953    0.1539948   -0.9643975
   0.0089938   -0.0039755   -0.0025447   -0.4760971   -0.8768744   -0.0665040
   0.0078183   -0.0033607   -0.0022236   -0.4119637   -0.8482560   -0.3327878
   0.0087123   -0.0038003   -0.0021524   -0.4394629   -0.8979432   -0.0238817
   0.0071224   -0.0003456   -0.0032478   -0.1705916    0.2546146   -0.9518770
   0.0070937    0.0001056   -0.0030901   -0.1326884    0.4169492   -0.8991925
   0.0070362    0.0009840   -0.0024982   -0.2160647    0.6255769   -0.7496463
   0.0067678    0.0005457   -0.0027812   -0.0828762    0.5617977   -0.8231129
   0.0072331    0.0014887   -0.0020819   -0.3454620    0.7297141   -0.5900622
   0.0120721    0.0029224   -0.0024948    0.0956276    0.9576152   -0.2717140
   0.0130677    0.0027952   -0.0022919    0.1905202    0.9816801    0.0024975
   0.0137490    0.0026553   -0.0023485    0.1685320    0.9791888    0.1130760
   0.0149879    0.0025469   -0.0027025    0.1872131    0.9685009    0.1641867
   0.0153318    0.0024465   -0.0033112    0.0861556    0.9464225   -0.3112260
   0.0099257    0.0029697   -0.0021043   -0.2457422    0.9649895   -0.0916846
   0.0104489    0.0030444   -0.0020757   -0.0754533    0.9936962   -0.0829131
   0.0114294    0.0030389   -0.0021683    0.0490512    0.9946407   -0.0910153
   0.0080747    0.0021579   -0.0017330   -0.4620912    0.8797605   -0.1117729
   0.0089316    0.0025848   -0.0019870   -0.4582680    0.8796857   -0.1270568
   0.0074391    0.0019224   -0.0013918   -0.2966168    0.9226715   -0.2463652
   0.0090775    0.0026624   -0.0016870   -0.3638688    0.9264019    0.0968455
   0.0129909   -0.0004615   -0.0007109    0.3909423   -0.1551255    0.9072487
   0.0137552   -0.0004340   -0.0010256    0.2457533   -0.1125589    0.9627751
   0.0147688   -0.0002848   -0.0011521    0.1431069   -0.1054115    0.9840776
   0.0153995   -0.0003199   -0.0012456    0.1359852   -0.0921525    0.9864157
   0.0164149   -0.0004489   -0.0014171    0.1261456   -0.0928399    0.9876579
   0.0168411   -0.0018424   -0.0019629   -0.3137131   -0.8021145    0.5081303
   0.0170033   -0.0008437   -0.0014920    0.0559367   -0.1159828    0.9916749
   0.0175344   -0.0018608   -0.0017618   -0.1532014   -0.4269569    0.8911998
   0.0172776   -0.0019990   -0.0019395   -0.3942223   -0.6865265    0.6109584
   0.0171335   -0.0013078   -0.0015866   -0.0009411   -0.2078777    0.9781544
   0.0176109    0.0011028   -0.0044465    0.0150987    0.4199091   -0.9074406
   0.0184082   -0.0010640   -0.0049493   -0.0560634    0.0372817   -0.9977309
   0.0200016   -0.0009052   -0.0048746    0.1285613    0.2300588   -0.9646476
   0.0190325    0.0001553   -0.0046424    0.1575027    0.3691923   -0.9159093
   0.0182177    0.0007987   -0.0045395    0.1657540    0.4709266   -0.8664605
   0.0185374   -0.0027828   -0.0036316   -0.6326359   -0.5757623   -0.5179476
   0.0181207   -0.0016247   -0.0045380   -0.5105770   -0.6790908   -0.5273963
   0.0186292   -0.0016143   -0.0050139   -0.1685012   -0.3775655   -0.9105227
   0.0176117   -0.0023826   -0.0029740   -0.5539387   -0.7904470   -0.2614298
   0.0181269   -0.0027971   -0.0031256   -0.6295177   -0.7141249   -0.3061587
   0.0171604   -0.0022879   -0.0025812   -0.5972844   -0.7976472    0.0837274
   0.0164972    0.0019330   -0.0039995    0.1584669    0.7802978   -0.6049989
   0.0170483    0.0018245   -0.0039669    0.0108124    0.6916235   -0.7221772
   0.0156411    0.0022689   -0.0036717    0.0917558    0.9072857   -0.4103821
   0.0162714    0.0022037   -0.0035691    0.1754461    0.9115684   -0.3718356
   0.0096240   -0.0042415   -0.0027523   -0.2724072   -0.9586158   -0.0827651
   0.0106872   -0.0027886   -0.0001673    0.3849918   -0.4428117    0.8097525
   0.0103573   -0.0023281    0.0001714    0.3862369   -0.2493868    0.8880469
   0.0103087   -0.0018591    0.0002660    0.3301731   -0.0856029    0.9400308
   0.0125400   -0.0002946   -0.0005078    0.3596406   -0.0471906    0.9318968
   0.0098922   -0.0039437   -0.0013699   -0.0721846   -0.9023209    0.4249782
   0.0094560   -0.0040360   -0.0017713   -0.2671173   -0.9223894    0.2790094
   0.0096376   -0.0041925   -0.0022482   -0.2553864   -0.9546276    0.1531792
   0.0102010   -0.0036897   -0.0009044    0.0840883   -0.8298954    0.5515459
   0.0106567   -0.0034986   -0.0007618    0.2309180   -0.7497041    0.6201779
   0.0102502   -0.0030616   -0.0001745    0.2220930   -0.6472094    0.7292426
   0.0060239   -0.0020293   -0.0027864   -0.2970123   -0.5374109   -0.7892865
   0.0064229   -0.0025059   -0.0025867   -0.3031105   -0.6613312   -0.6861232
   0.0069597   -0.0030347   -0.0022529   -0.3318669   -0.8230567   -0.4609144
   0.0063317   -0.0004682   -0.0032220   -0.1003380    0.2225822   -0.9697368
   0.0052556   -0.0008037   -0.0030358   -0.2306403   -0.1336916   -0.9638110
   0.0051921   -0.0014797   -0.0028283   -0.2848908   -0.3732279   -0.8829146
   0.0055440   -0.0002828   -0.0030747   -0.1412424    0.1973942   -0.9700959
   0.0077421   -0.0034143   -0.0018802   -0.3141199   -0.9436309   -0.1043522
   0.0083967   -0.0036021   -0.0016980   -0.2800244   -0.9423243    0.1833335
   0.0063683    0.0002835   -0.0029315   -0.0417947    0.4496282   -0.8922375
   0.0067581    0.0013496   -0.0020831   -0.1080200    0.7516398   -0.6506683
   0.0063757    0.0010518   -0.0023682   -0.0306378    0.6844409   -0.7284243
   0.0055004    0.0006967   -0.0026716   -0.0377549    0.5160285   -0.8557390
   0.0068921    0.0018097   -0.0014649   -0.0844511    0.8752848   -0.4761769
   0.0122393    0.0029580   -0.0020380    0.1585944    0.9831782    0.0906007
   0.0124472    0.0027792   -0.0016438    0.2281502    0.8778067    0.4211921
   0.0138056    0.0025600   -0.0020607    0.3146180    0.7997798    0.5112414
   0.0143266    0.0024542   -0.0021755    0.2198327    0.8134146    0.5385446
   0.0155140    0.0022700   -0.0024522    0.2885366    0.8385960    0.4620642
   0.0157304    0.0024016   -0.0030057    0.2474446    0.9683961    0.0313089
   0.0100804    0.0029561   -0.0015933   -0.1425554    0.9644249    0.2226264
   0.0112597    0.0030236   -0.0017779    0.0648013    0.9651010    0.2537340
   0.0082740    0.0022509   -0.0013227   -0.3257792    0.9324344    0.1563137
   0.0088594    0.0024607   -0.0012411   -0.3386747    0.8959287    0.2874218
   0.0069489    0.0019954   -0.0010150   -0.0095626    0.9835159   -0.1805688
   0.0079314    0.0020399   -0.0009035   -0.1244943    0.9621368    0.2424747
   0.0097917    0.0027706   -0.0012429   -0.1830707    0.8764370    0.4453576
   0.0135137    0.0000960   -0.0009291    0.3259438    0.0230709    0.9451076
   0.0146989    0.0000726   -0.0011775    0.1466194    0.0507606    0.9878897
   0.0156895    0.0001064   -0.0012816    0.1667021    0.1200359    0.9786735
   0.0171966   -0.0003466   -0.0015503    0.1728513    0.1089053    0.9789086
   0.0183288   -0.0011935   -0.0016318    0.0637371   -0.0113654    0.9979020
   0.0175356   -0.0022414   -0.0020214   -0.4046047   -0.6996771    0.5888523
   0.0179627   -0.0024073   -0.0019833   -0.3690560   -0.6477465    0.6664999
   0.0181841   -0.0019338   -0.0016939   -0.1066485   -0.2599859    0.9597049
   0.0178448   -0.0013108   -0.0016144    0.0027171   -0.1453118    0.9893822
   0.0175562    0.0013786   -0.0043105    0.0997488    0.5918888   -0.7998236
   0.0193131   -0.0016830   -0.0050040   -0.1508631    0.0061722   -0.9885354
   0.0207465   -0.0020826   -0.0049377    0.1850331    0.1293706   -0.9741796
   0.0198718    0.0001822   -0.0044866    0.2468965    0.4672726   -0.8489396
   0.0206981   -0.0007534   -0.0046536    0.3118969    0.3279515   -0.8917220
   0.0191321    0.0007689   -0.0043216    0.2344163    0.5612242   -0.7937735
   0.0182793    0.0013454   -0.0041632    0.3101772    0.7144681   -0.6271566
   0.0191874    0.0011355   -0.0039617    0.3538811    0.8507634   -0.3885483
   0.0188375   -0.0035117   -0.0032594   -0.7606024   -0.5915050   -0.2675927
   0.0184820   -0.0030791   -0.0031808   -0.6999577   -0.6468791   -0.3026658
   0.0193704   -0.0025967   -0.0046409   -0.5114318   -0.4890178   -0.7066110
   0.0191576   -0.0032586   -0.0039737   -0.6866407   -0.4556182   -0.5665126
   0.0190821   -0.0020615   -0.0048626   -0.4226779   -0.2868539   -0.8596850
   0.0191762   -0.0019101   -0.0048022   -0.2870836   -0.0076730   -0.9578748
   0.0175006   -0.0024160   -0.0023873   -0.4535542   -0.8676132    0.2038036
   0.0180170   -0.0027874   -0.0027344   -0.6715471   -0.7326212    0.1108629
   0.0182422   -0.0030280   -0.0025592   -0.7079107   -0.7050561    0.0419323
   0.0168793    0.0021003   -0.0034337    0.2170135    0.9718420   -0.0918057
   0.0176397    0.0016825   -0.0040088    0.2139125    0.8011057   -0.5589912
   0.0170832    0.0019520   -0.0038078    0.0867642    0.8894418   -0.4487374
   0.0098711   -0.0025566    0.0002558    0.2292214   -0.4193697    0.8784000
   0.0094432   -0.0019771    0.0005216    0.2262189   -0.1281648    0.9656080
   0.0100868   -0.0015415    0.0003368    0.2701417    0.0788710    0.9595847
   0.0109868   -0.0009086   -0.0000005    0.2720574    0.0698082    0.9597456
   0.0115306    0.0000888   -0.0001882    0.2530643    0.0583971    0.9656854
   0.0122921    0.0000322   -0.0004308    0.3044159    0.0069649    0.9525138
   0.0125072    0.0006760   -0.0005046    0.3496964    0.0906319    0.9324689
   0.0094016   -0.0034390   -0.0005673   -0.1071611   -0.8458738    0.5225074
   0.0087891   -0.0034758   -0.0008959   -0.1994701   -0.9152721    0.3499839
   0.0098235   -0.0032953   -0.0003137    0.0752760   -0.7261728    0.6833788
   0.0056420   -0.0025279   -0.0022227   -0.2916127   -0.7198116   -0.6299471
   0.0046486   -0.0018588   -0.0024277   -0.2699027   -0.5666564   -0.7784941
   0.0063337   -0.0027992   -0.0022172   -0.2622108   -0.8423586   -0.4708265
   0.0063896   -0.0030852   -0.0014168   -0.2479441   -0.9647831   -0.0878479
   0.0072495   -0.0033009   -0.0017532   -0.2765841   -0.9490682   -0.1508997
   0.0059339    0.0000163   -0.0030424   -0.0898703    0.3609745   -0.9282353
   0.0047204   -0.0002660   -0.0029311   -0.1340285    0.0040600   -0.9909692
   0.0047062   -0.0008730   -0.0028781   -0.2275983   -0.2616235   -0.9379511
   0.0051743    0.0002364   -0.0028785   -0.0672889    0.3139652   -0.9470470
   0.0073833   -0.0033327   -0.0014087   -0.2227281   -0.9698202    0.0992016
   0.0080839   -0.0033840   -0.0010854   -0.1777659   -0.9524373    0.2475124
   0.0058424    0.0016807   -0.0016530   -0.0488894    0.8251765   -0.5627554
   0.0053547    0.0011913   -0.0022456   -0.0537273    0.7499644   -0.6592926
   0.0043756    0.0007048   -0.0026097   -0.0774773    0.5125890   -0.8551314
   0.0060775    0.0020114   -0.0009888   -0.0858076    0.9578445   -0.2741734
   0.0116775    0.0027863   -0.0013745    0.1455980    0.8253062    0.5455922
   0.0123226    0.0025893   -0.0013174    0.2376443    0.7237721    0.6478265
   0.0131085    0.0024101   -0.0014804    0.3488501    0.6471914    0.6778252
   0.0133750    0.0020857   -0.0013893    0.4067572    0.4752988    0.7801536
   0.0140614    0.0018851   -0.0016040    0.2462845    0.5726965    0.7818968
   0.0146183    0.0021777   -0.0019207    0.1643563    0.6800798    0.7144778
   0.0154419    0.0019550   -0.0019753    0.2590379    0.6480598    0.7161828
   0.0158888    0.0019059   -0.0021538    0.3222898    0.7070246    0.6294803
   0.0163923    0.0021228   -0.0027900    0.3513071    0.8512342    0.3898508
   0.0105613    0.0028538   -0.0012783    0.0084127    0.8901657    0.4555592
   0.0084286    0.0021269   -0.0008882   -0.2113412    0.8434890    0.4938231
   0.0091577    0.0023543   -0.0008719   -0.2187580    0.7673175    0.6028008
   0.0065591    0.0020697   -0.0006112    0.0435216    0.9950964    0.0888204
   0.0071970    0.0019737   -0.0006862    0.0973605    0.9666794    0.2367528
   0.0079494    0.0018175   -0.0005281    0.0302529    0.8409663    0.5402411
   0.0099162    0.0025389   -0.0008727   -0.1050275    0.7555963    0.6465628
   0.0106727    0.0026433   -0.0009624    0.0442192    0.7557370    0.6533807
   0.0134565    0.0006632   -0.0009447    0.3393448    0.1302047    0.9316071
   0.0142760    0.0006316   -0.0011635    0.2019423    0.1592739    0.9663597
   0.0149633    0.0007522   -0.0013311    0.1729737    0.2175370    0.9606028
   0.0165299    0.0002437   -0.0015110    0.2166750    0.2081410    0.9537973
   0.0158809    0.0008526   -0.0014992    0.2237053    0.3254372    0.9187201
   0.0175408    0.0000549   -0.0016836    0.2183531    0.2517342    0.9428424
   0.0184754   -0.0003782   -0.0017617    0.1786584    0.2378755    0.9547232
   0.0190870   -0.0023049   -0.0017079   -0.0713860   -0.1832962    0.9804624
   0.0190208   -0.0013735   -0.0016531    0.1134797    0.0806354    0.9902627
   0.0185682   -0.0025666   -0.0018522   -0.2526213   -0.4216470    0.8708595
   0.0184089   -0.0030125   -0.0022447   -0.6113737   -0.6207331    0.4908286
   0.0181268    0.0016398   -0.0038558    0.3349044    0.8604926   -0.3839161
   0.0197126   -0.0022261   -0.0049755   -0.2677973   -0.2983312   -0.9161239
   0.0204141   -0.0024481   -0.0050193   -0.0233101   -0.0606479   -0.9978870
   0.0212044   -0.0034979   -0.0049414   -0.0015649   -0.0546661   -0.9985035
   0.0216284   -0.0033945   -0.0048575    0.2369609    0.0907464   -0.9672717
   0.0217470   -0.0021150   -0.0046689    0.3617360    0.2060631   -0.9092222
   0.0204326    0.0001934   -0.0042524    0.3740556    0.5750156   -0.7276259
   0.0198796    0.0007738   -0.0040108    0.4580686    0.8101742   -0.3657745
   0.0208534   -0.0004959   -0.0044826    0.3700076    0.4091407   -0.8340853
   0.0212027   -0.0004663   -0.0042809    0.4594832    0.4732761   -0.7515883
   0.0215897   -0.0011978   -0.0044591    0.4307118    0.3755920   -0.8206205
   0.0182585    0.0016283   -0.0036847    0.3809158    0.9135632   -0.1424970
   0.0187837    0.0013716   -0.0038294    0.4694639    0.8687895   -0.1575071
   0.0193054    0.0010147   -0.0029836    0.4266975    0.8356808    0.3457843
   0.0196541    0.0009541   -0.0033944    0.4657977    0.8813363    0.0792390
   0.0196417    0.0009753   -0.0037698    0.4790589    0.8742261   -0.0789391
   0.0186829   -0.0034380   -0.0027816   -0.7506838   -0.6602064   -0.0245222
   0.0191917   -0.0040647   -0.0027542   -0.7578354   -0.6380643    0.1362328
   0.0191412   -0.0038695   -0.0032376   -0.7923358   -0.5997382   -0.1118840
   0.0197239   -0.0046031   -0.0035538   -0.7682554   -0.5586515   -0.3125576
   0.0199247   -0.0038076   -0.0043801   -0.5420440   -0.3943896   -0.7420547
   0.0199329   -0.0045612   -0.0039080   -0.6746838   -0.4764812   -0.5637086
   0.0166789    0.0018368   -0.0025276    0.3280367    0.8157483    0.4763891
   0.0176390    0.0018532   -0.0031818    0.3286817    0.9260336    0.1855536
   0.0175676    0.0018996   -0.0034515    0.3060735    0.9399136   -0.1512659
   0.0095365   -0.0029188    0.0000784    0.0470635   -0.6674623    0.7431548
   0.0091864   -0.0024766    0.0004094    0.1012870   -0.4873124    0.8673336
   0.0088593   -0.0022171    0.0005728    0.0747474   -0.3840558    0.9202793
   0.0084482   -0.0018800    0.0007129    0.1274924   -0.1442260    0.9812974
   0.0093094   -0.0012818    0.0004975    0.2365140    0.1182684    0.9644033
   0.0100177   -0.0008378    0.0002423    0.2273512    0.1607395    0.9604552
   0.0107738   -0.0003077   -0.0000023    0.1918997    0.1137188    0.9748038
   0.0108749    0.0007385   -0.0001188    0.1512765    0.1433992    0.9780348
   0.0115953    0.0011372   -0.0003215    0.2131228    0.1869292    0.9589766
   0.0123997    0.0014382   -0.0006041    0.3202755    0.2621731    0.9103235
   0.0130004    0.0012953   -0.0008623    0.3983502    0.2809072    0.8731599
   0.0089434   -0.0029773    0.0000130   -0.0241096   -0.7192753    0.6943067
   0.0079144   -0.0029777   -0.0001516   -0.0972552   -0.8441201    0.5272596
   0.0077423   -0.0031935   -0.0006271   -0.1508155   -0.9195208    0.3629548
   0.0055335   -0.0028597   -0.0015855   -0.2347502   -0.9208387   -0.3113654
   0.0048088   -0.0025453   -0.0018077   -0.2811571   -0.8179099   -0.5019702
   0.0040786   -0.0022205   -0.0018588   -0.2385831   -0.7685467   -0.5936447
   0.0039541   -0.0018382   -0.0022062   -0.1622393   -0.6600559   -0.7334880
   0.0040136   -0.0013585   -0.0025565   -0.1015930   -0.4588442   -0.8826896
   0.0060832   -0.0029981   -0.0016151   -0.1925010   -0.9697013   -0.1504090
   0.0068935   -0.0031092   -0.0008099   -0.1858843   -0.9442676    0.2716722
   0.0061018   -0.0029797   -0.0009443   -0.1560972   -0.9719399    0.1759732
   0.0044677    0.0000071   -0.0028739   -0.0781585    0.2132722   -0.9738615
   0.0033618   -0.0003748   -0.0028033   -0.0309454   -0.0293802   -0.9990892
   0.0032293   -0.0008362   -0.0027243    0.0351362   -0.2557876   -0.9660943
   0.0040898   -0.0008031   -0.0027841   -0.1134954   -0.2532373   -0.9607235
   0.0052063    0.0016460   -0.0015610   -0.1239955    0.8791507   -0.4601294
   0.0037633    0.0012502   -0.0019307   -0.0434535    0.8520972   -0.5215766
   0.0034101    0.0010402   -0.0021930   -0.0205164    0.7072255   -0.7066903
   0.0034535    0.0003167   -0.0027172   -0.0251976    0.3756615   -0.9264143
   0.0058877    0.0020180   -0.0005605   -0.1036509    0.9786947    0.1772374
   0.0052303    0.0018948   -0.0008446   -0.1847482    0.9721930   -0.1439059
   0.0043716    0.0015785   -0.0013907   -0.1182884    0.9356399   -0.3325446
   0.0116671    0.0023154   -0.0008677    0.1848619    0.6321203    0.7524958
   0.0124894    0.0022334   -0.0010590    0.2810378    0.6080543    0.7424876
   0.0124482    0.0019259   -0.0008141    0.3144465    0.4589642    0.8309484
   0.0135906    0.0015649   -0.0012398    0.3071035    0.4160427    0.8559182
   0.0146398    0.0014731   -0.0014642    0.2133927    0.4436724    0.8704128
   0.0155856    0.0014506   -0.0016994    0.2694369    0.4974132    0.8246114
   0.0166033    0.0014820   -0.0020506    0.3242223    0.5767477    0.7498280
   0.0085139    0.0018384   -0.0005189   -0.0878608    0.7040488    0.7046955
   0.0100302    0.0021976   -0.0005412   -0.0437512    0.5946159    0.8028186
   0.0066844    0.0019182   -0.0002301    0.0997310    0.8902538    0.4444119
   0.0079673    0.0015550   -0.0002185    0.1579554    0.7058804    0.6904947
   0.0105785    0.0023404   -0.0006855    0.0949379    0.6176771    0.7806803
   0.0141388    0.0011455   -0.0012490    0.2454969    0.2472269    0.9373421
   0.0169119    0.0006720   -0.0017055    0.2505755    0.3563188    0.9001382
   0.0167062    0.0010916   -0.0018871    0.2993808    0.5037145    0.8103350
   0.0180120    0.0005858   -0.0020166    0.2657333    0.4361678    0.8597345
   0.0194120   -0.0008165   -0.0018441    0.2566081    0.2538222    0.9325913
   0.0191460    0.0000249   -0.0020579    0.2720516    0.4579573    0.8463233
   0.0191727   -0.0032700   -0.0020014   -0.3271495   -0.4278274    0.8425776
   0.0196704   -0.0032031   -0.0018502   -0.1494297   -0.2412510    0.9588893
   0.0201176   -0.0031218   -0.0018095   -0.0263535   -0.1259651    0.9916846
   0.0196568   -0.0023888   -0.0017038    0.0682637   -0.0294150    0.9972336
   0.0199027   -0.0016334   -0.0018140    0.2265652    0.1643013    0.9600382
   0.0189167   -0.0035989   -0.0024093   -0.5685332   -0.6212546    0.5392706
   0.0187664   -0.0035356   -0.0025405   -0.7282600   -0.6487587    0.2207930
   0.0205519   -0.0035613   -0.0048251   -0.3128055   -0.2673849   -0.9114044
   0.0213790   -0.0051896   -0.0046981   -0.3429456   -0.2388484   -0.9084821
   0.0218854   -0.0047119   -0.0048997    0.0176564   -0.0583842   -0.9981380
   0.0223935   -0.0048066   -0.0047909    0.3576408    0.0786597   -0.9305406
   0.0223209   -0.0032142   -0.0046253    0.4156900    0.1423761   -0.8982933
   0.0228265   -0.0025718   -0.0042005    0.5881491    0.2200392   -0.7782438
   0.0221370   -0.0013571   -0.0042275    0.5260116    0.3917588   -0.7548754
   0.0207423    0.0002466   -0.0039788    0.5773470    0.6987892   -0.4223317
   0.0206728    0.0003932   -0.0038368    0.6070770    0.7423169   -0.2835898
   0.0206502    0.0004253   -0.0033930    0.5340150    0.8264755    0.1782308
   0.0201571    0.0005989   -0.0031160    0.4810482    0.8435488    0.2387846
   0.0215301   -0.0004748   -0.0040471    0.5374519    0.5752785   -0.6166037
   0.0186511    0.0014032   -0.0031959    0.4204436    0.8454491    0.3293069
   0.0186180    0.0014864   -0.0035263    0.4746798    0.8774950    0.0684224
   0.0202694    0.0004285   -0.0029355    0.4585838    0.6730914    0.5802145
   0.0191522    0.0008976   -0.0027368    0.3115594    0.6921139    0.6510830
   0.0195092    0.0003946   -0.0024288    0.3652371    0.5961099    0.7150209
   0.0195529   -0.0044677   -0.0026382   -0.7203685   -0.5487659    0.4241759
   0.0194199   -0.0040144   -0.0023403   -0.5482471   -0.5109879    0.6620548
   0.0197405   -0.0048354   -0.0030175   -0.8117430   -0.5823244   -0.0444033
   0.0201063   -0.0049979   -0.0036731   -0.7036693   -0.5489756   -0.4510824
   0.0200963   -0.0052982   -0.0031014   -0.7683844   -0.6015833   -0.2183644
   0.0204362   -0.0048461   -0.0042196   -0.5838663   -0.4023830   -0.7051157
   0.0178436    0.0015642   -0.0027782    0.3534247    0.7420732    0.5695773
   0.0085894   -0.0025348    0.0004106    0.0276083   -0.5644248    0.8250227
   0.0073648   -0.0020261    0.0006805   -0.0311947   -0.4834659    0.8748072
   0.0080850   -0.0025509    0.0003986   -0.0350820   -0.6420817    0.7658331
   0.0077842   -0.0013170    0.0008238    0.1603917   -0.0206936    0.9868365
   0.0084279   -0.0013904    0.0007220    0.2054677    0.0535792    0.9771961
   0.0070033   -0.0016442    0.0008419    0.0430796   -0.2710496    0.9616009
   0.0088074   -0.0009889    0.0005878    0.2567035    0.1740197    0.9506947
   0.0093285   -0.0002034    0.0002473    0.2164345    0.2154768    0.9522215
   0.0100230    0.0001705    0.0000652    0.1402628    0.1618715    0.9767927
   0.0095906    0.0008408   -0.0000074    0.0789352    0.2258237    0.9709649
   0.0103967    0.0015231   -0.0002152    0.0837669    0.3221198    0.9429856
   0.0113418    0.0015910   -0.0003957    0.1931050    0.3449936    0.9185259
   0.0077728   -0.0027545    0.0001466   -0.0874782   -0.7803674    0.6191722
   0.0073160   -0.0029353   -0.0002126   -0.1455596   -0.8470444    0.5112027
   0.0055856   -0.0029245   -0.0009053   -0.1272751   -0.9889299    0.0762800
   0.0051407   -0.0028755   -0.0011703   -0.2303059   -0.9626304   -0.1424849
   0.0044262   -0.0025420   -0.0015471   -0.2858234   -0.8843933   -0.3689897
   0.0032099   -0.0020240   -0.0018701   -0.0363680   -0.8164675   -0.5762449
   0.0034563   -0.0022463   -0.0015289   -0.1750201   -0.9012343   -0.3964148
   0.0032358   -0.0016749   -0.0022822   -0.0029944   -0.6644483   -0.7473282
   0.0029902   -0.0012610   -0.0025960    0.0547081   -0.4878971   -0.8711851
   0.0064871   -0.0028126   -0.0002839   -0.1165547   -0.8882304    0.4443667
   0.0052316   -0.0027229   -0.0002241   -0.0579783   -0.9240828    0.3777692
   0.0034960    0.0000590   -0.0027894   -0.0362608    0.1479034   -0.9883369
   0.0027929   -0.0002996   -0.0028423    0.0763280    0.0152081   -0.9969668
   0.0023641   -0.0011741   -0.0027185    0.2333336   -0.4498814   -0.8620685
   0.0022618   -0.0008730   -0.0028605    0.2008121   -0.1880163   -0.9614179
   0.0036705    0.0016097   -0.0012963    0.0559909    0.9325415   -0.3566950
   0.0030096    0.0014567   -0.0016791    0.0694607    0.8348024   -0.5461503
   0.0030487    0.0006502   -0.0025284    0.0474703    0.5271200   -0.8484639
   0.0026903    0.0011132   -0.0021401    0.0398328    0.7164690   -0.6964808
   0.0026000   -0.0000162   -0.0028288    0.0534455    0.2568536   -0.9649714
   0.0059654    0.0018807   -0.0001351   -0.0688548    0.8882709    0.4541297
   0.0049616    0.0017075   -0.0000695   -0.0072266    0.9125553    0.4088895
   0.0045198    0.0017863   -0.0004152   -0.0354312    0.9993705    0.0017792
   0.0044170    0.0017150   -0.0008485   -0.1162769    0.9762281   -0.1829161
   0.0107712    0.0020224   -0.0004860    0.1331849    0.4912754    0.8607615
   0.0174128    0.0014514   -0.0024522    0.3497371    0.5874483    0.7297865
   0.0087472    0.0015269   -0.0002686   -0.0067068    0.5503600    0.8349006
   0.0096592    0.0017984   -0.0003212   -0.0412330    0.4591443    0.8874043
   0.0060335    0.0016740    0.0001960   -0.0146095    0.7795523    0.6261668
   0.0067739    0.0016995    0.0000823    0.1488323    0.7591112    0.6337185
   0.0068582    0.0013208    0.0004398    0.2268165    0.5954010    0.7707476
   0.0082763    0.0011164    0.0000419    0.2124934    0.4889964    0.8460077
   0.0183800    0.0009351   -0.0023988    0.3258032    0.6400422    0.6958436
   0.0204655   -0.0011305   -0.0021092    0.3233122    0.2759229    0.9051717
   0.0197700   -0.0002205   -0.0021716    0.3440392    0.4288154    0.8353169
   0.0200130   -0.0036848   -0.0019141   -0.2478532   -0.2688042    0.9307594
   0.0207747   -0.0037013   -0.0018308    0.0048322   -0.0772502    0.9970000
   0.0208082   -0.0032324   -0.0018178    0.1763353    0.0274710    0.9839468
   0.0204911   -0.0026425   -0.0017816    0.1506574    0.0449821    0.9875621
   0.0208952   -0.0020475   -0.0019891    0.3090080    0.1972372    0.9303825
   0.0212728   -0.0058428   -0.0044134   -0.5753417   -0.4274702   -0.6973171
   0.0220879   -0.0061651   -0.0046686   -0.1796253   -0.2883147   -0.9405368
   0.0224501   -0.0055443   -0.0047998    0.1439490   -0.0944429   -0.9850681
   0.0230146   -0.0059149   -0.0046297    0.4142779   -0.0150452   -0.9100261
   0.0227605   -0.0042364   -0.0045381    0.5058772    0.1020256   -0.8565507
   0.0230921   -0.0044561   -0.0043433    0.6362670    0.1216429   -0.7618184
   0.0229301   -0.0035184   -0.0043220    0.5951160    0.1456313   -0.7903344
   0.0232900   -0.0032187   -0.0038979    0.8317391    0.1697269   -0.5285857
   0.0231688   -0.0023598   -0.0037592    0.8644075    0.3329542   -0.3767508
   0.0227826   -0.0020350   -0.0040438    0.6863844    0.3778682   -0.6213631
   0.0221462   -0.0007897   -0.0037577    0.6491695    0.6880098   -0.3243786
   0.0224361   -0.0013280   -0.0039392    0.6767164    0.4980683   -0.5422019
   0.0214676   -0.0001983   -0.0036975    0.6090080    0.7823989   -0.1302350
   0.0209664    0.0000764   -0.0031912    0.6203794    0.7588128    0.1983242
   0.0203264   -0.0000884   -0.0025118    0.4167337    0.5268893    0.7407568
   0.0209990   -0.0002075   -0.0028903    0.5002515    0.5927354    0.6311998
   0.0196955   -0.0041891   -0.0022423   -0.5118385   -0.4038800    0.7582232
   0.0203136   -0.0053674   -0.0024868   -0.6682371   -0.4691050    0.5774078
   0.0200509   -0.0048225   -0.0023512   -0.5620610   -0.4123223    0.7169922
   0.0200881   -0.0053075   -0.0028885   -0.7843881   -0.6061992    0.1313693
   0.0208470   -0.0059361   -0.0036929   -0.7201127   -0.5687168   -0.3974907
   0.0211274   -0.0065227   -0.0032654   -0.7566681   -0.6297908   -0.1755479
   0.0073645   -0.0024879    0.0003711   -0.1222981   -0.6837852    0.7193615
   0.0064323   -0.0019747    0.0006971    0.0426882   -0.5291378    0.8474615
   0.0067928   -0.0024981    0.0002561   -0.0923771   -0.7263547    0.6810839
   0.0080035   -0.0006889    0.0007402    0.2339795    0.1298874    0.9635263
   0.0074226    0.0002977    0.0007714    0.2959571    0.2420830    0.9240158
   0.0069681   -0.0000741    0.0009596    0.2146205    0.1004761    0.9715156
   0.0067582   -0.0006954    0.0010080    0.1479113   -0.0573172    0.9873383
   0.0071152   -0.0012514    0.0009079    0.1038680   -0.1516568    0.9829607
   0.0065368   -0.0012791    0.0009617    0.1151886   -0.2458956    0.9624276
   0.0082627   -0.0001262    0.0005380    0.3036042    0.2324322    0.9240128
   0.0086387    0.0004422    0.0002349    0.2776172    0.3240069    0.9044049
   0.0091612    0.0005471    0.0001093    0.1380676    0.2763088    0.9510998
   0.0088222    0.0011891   -0.0000888    0.0483128    0.3786786    0.9242664
   0.0048450   -0.0027493   -0.0004809   -0.1977634   -0.9607604    0.1944972
   0.0034957   -0.0023702   -0.0010555   -0.1889440   -0.9716790   -0.1419160
   0.0028746   -0.0022256   -0.0014820    0.0050416   -0.9446059   -0.3281681
   0.0025845   -0.0017284   -0.0023065    0.1311896   -0.6707656   -0.7299745
   0.0022538   -0.0021110   -0.0018937    0.0932388   -0.8719488   -0.4806370
   0.0061370   -0.0024407    0.0002764    0.0094054   -0.7828432    0.6221479
   0.0055065   -0.0023855    0.0003926    0.0537150   -0.7686913    0.6373605
   0.0050400   -0.0024451    0.0003285   -0.0631873   -0.8480213    0.5261818
   0.0015991   -0.0005701   -0.0029914    0.0965831   -0.0077333   -0.9952949
   0.0020794   -0.0014935   -0.0026155    0.2346149   -0.6212306   -0.7476821
   0.0019395   -0.0012172   -0.0028943    0.1933854   -0.3944905   -0.8983203
   0.0036649    0.0018812   -0.0005058    0.2404796    0.9421411   -0.2335373
   0.0032622    0.0017960   -0.0009837    0.1689095    0.8914485   -0.4204631
   0.0022897    0.0021822   -0.0006075    0.0638277    0.9125577   -0.4039362
   0.0019540    0.0015591   -0.0016742    0.0217250    0.8051207   -0.5927130
   0.0024380    0.0002841   -0.0027438    0.0795450    0.3190381   -0.9443978
   0.0020738    0.0006883   -0.0025545    0.0568998    0.5370205   -0.8416481
   0.0013097    0.0010232   -0.0023034    0.0342976    0.6809434   -0.7315325
   0.0050037    0.0014930    0.0002656    0.0035805    0.7887673    0.6146815
   0.0041633    0.0017573    0.0000355    0.2706393    0.9369276    0.2211809
   0.0042790    0.0015163    0.0003995    0.2644582    0.7615096    0.5917474
   0.0061663    0.0013210    0.0005535    0.0401196    0.6371287    0.7697126
   0.0053664    0.0012405    0.0005617   -0.0198365    0.6929399    0.7207224
   0.0063486    0.0009337    0.0007807    0.1092885    0.4718904    0.8748574
   0.0070769    0.0008599    0.0006527    0.2549377    0.4296065    0.8662823
   0.0076206    0.0010533    0.0003437    0.3206851    0.4607181    0.8275868
   0.0216991   -0.0014914   -0.0024923    0.4501411    0.3497619    0.8216079
   0.0203554   -0.0006029   -0.0022395    0.3894739    0.4096355    0.8249296
   0.0211905   -0.0008165   -0.0025128    0.4245986    0.4333679    0.7949266
   0.0204579   -0.0044967   -0.0020042   -0.2893581   -0.2449435    0.9253511
   0.0213082   -0.0045510   -0.0018796   -0.0048530   -0.0170877    0.9998422
   0.0213860   -0.0040860   -0.0019437    0.1970726    0.0650176    0.9782306
   0.0212631   -0.0030212   -0.0019709    0.3214623    0.1277632    0.9382636
   0.0221976   -0.0027727   -0.0023456    0.4773363    0.1812122    0.8598327
   0.0217881   -0.0020320   -0.0023273    0.4320408    0.2747953    0.8589693
   0.0218484   -0.0063650   -0.0044856   -0.4385713   -0.4359522   -0.7858759
   0.0215835   -0.0064321   -0.0042385   -0.6382017   -0.5437259   -0.5450327
   0.0221189   -0.0070010   -0.0042484   -0.4036021   -0.5271581   -0.7478032
   0.0227743   -0.0067672   -0.0045437    0.0101432   -0.2914789   -0.9565235
   0.0232555   -0.0053337   -0.0043576    0.6946027    0.1148604   -0.7101649
   0.0235415   -0.0057402   -0.0041125    0.7867062    0.0943026   -0.6100823
   0.0233736   -0.0068598   -0.0043918    0.6235710   -0.0674631   -0.7788504
   0.0233828   -0.0047526   -0.0040896    0.7957589    0.1226650   -0.5930607
   0.0234470   -0.0042663   -0.0039270    0.8638577    0.1487295   -0.4812789
   0.0233354   -0.0027197   -0.0035009    0.9635085    0.2676301   -0.0050444
   0.0233743   -0.0031758   -0.0036369    0.9651538    0.1970412   -0.1722000
   0.0234737   -0.0037969   -0.0037020    0.9683220    0.1432319   -0.2045411
   0.0230355   -0.0020465   -0.0036818    0.9044606    0.4047714   -0.1345774
   0.0230961   -0.0022061   -0.0034104    0.9075391    0.4016682    0.1226193
   0.0228498   -0.0014777   -0.0034755    0.8389192    0.5424277   -0.0445731
   0.0224484   -0.0010169   -0.0035136    0.7130619    0.6994312    0.0483609
   0.0218032   -0.0006593   -0.0031463    0.6267461    0.6861440    0.3693179
   0.0214131   -0.0001333   -0.0033937    0.6047285    0.7531445    0.2589920
   0.0217239   -0.0008732   -0.0028417    0.5279521    0.5222728    0.6696998
   0.0207808   -0.0052778   -0.0020794   -0.3928755   -0.2450397    0.8863432
   0.0210909   -0.0063890   -0.0023821   -0.7357472   -0.5449474    0.4021297
   0.0212822   -0.0061849   -0.0020814   -0.4646017   -0.3102908    0.8293762
   0.0220590   -0.0072166   -0.0039775   -0.6605102   -0.6014069   -0.4494841
   0.0218870   -0.0073722   -0.0033042   -0.7451516   -0.6425950   -0.1783839
   0.0216330   -0.0071291   -0.0024291   -0.7304854   -0.6183312    0.2899270
   0.0059442   -0.0020825    0.0006632    0.0718593   -0.6275638    0.7752418
   0.0061704   -0.0016607    0.0008965    0.1348277   -0.4075876    0.9031577
   0.0064881    0.0004898    0.0009529    0.1530439    0.2671595    0.9514218
   0.0063162   -0.0000301    0.0010711    0.1445693    0.0958936    0.9848371
   0.0055800   -0.0002850    0.0011828    0.1459759    0.0736825    0.9865404
   0.0050152   -0.0008479    0.0012724    0.1698406   -0.0927262    0.9810994
   0.0058737   -0.0012131    0.0010761    0.1461765   -0.2334115    0.9613280
   0.0044954   -0.0024577    0.0001663   -0.1428726   -0.9301935    0.3381235
   0.0034044   -0.0023723   -0.0007185   -0.1231006   -0.9923511    0.0092523
   0.0028536   -0.0023341   -0.0010022   -0.0062671   -0.9983978   -0.0562370
   0.0016622   -0.0023102   -0.0014889   -0.0049737   -0.9654040   -0.2607112
   0.0016844   -0.0019909   -0.0022270    0.0407746   -0.8066347   -0.5896422
   0.0056277   -0.0017838    0.0009142    0.1197581   -0.5036294    0.8555790
   0.0051904   -0.0019764    0.0008596    0.0605371   -0.6427741    0.7636601
   0.0046250   -0.0020073    0.0008307   -0.0637234   -0.6902335    0.7207753
   0.0017849   -0.0000433   -0.0029089    0.1535821    0.2612804   -0.9529665
   0.0013143   -0.0002211   -0.0030333    0.0608385    0.1404656   -0.9882146
   0.0014425   -0.0012570   -0.0028767   -0.1117375   -0.4236195   -0.8989223
   0.0009899   -0.0007316   -0.0029766   -0.1466967   -0.2044029   -0.9678324
   0.0016068   -0.0016127   -0.0026360    0.0252468   -0.6607046   -0.7502213
   0.0034328    0.0021023   -0.0000319    0.3388994    0.9403693   -0.0292040
   0.0028967    0.0021391   -0.0004614    0.2267556    0.9148248   -0.3341817
   0.0026477    0.0023215   -0.0000040    0.1815042    0.9814297   -0.0620634
   0.0020097    0.0023071   -0.0001255   -0.0786998    0.9933385   -0.0841725
   0.0016837    0.0019240   -0.0010889   -0.0511940    0.8761133   -0.4793794
   0.0016265    0.0021599   -0.0005624   -0.0992918    0.9388836   -0.3296039
   0.0004422    0.0013400   -0.0018729   -0.1277137    0.8091750   -0.5735198
   0.0007516    0.0009917   -0.0023493   -0.0591194    0.7325848   -0.6781035
   0.0015531    0.0003966   -0.0027800    0.0945180    0.4613489   -0.8821698
   0.0007433    0.0005779   -0.0027295   -0.0310483    0.5774239   -0.8158539
   0.0044399    0.0012111    0.0006558    0.1624239    0.6425639    0.7488192
   0.0033686    0.0019372    0.0005540    0.3729970    0.8093600    0.4536625
   0.0037037    0.0013558    0.0008679    0.3736226    0.5601376    0.7393591
   0.0055043    0.0009674    0.0007825    0.0226549    0.5482965    0.8359771
   0.0055996    0.0005977    0.0009821    0.0717423    0.3948036    0.9159602
   0.0225516   -0.0019899   -0.0028383    0.5558873    0.3158538    0.7689120
   0.0224079   -0.0013055   -0.0030871    0.5917804    0.5228180    0.6135612
   0.0216760   -0.0054866   -0.0018554   -0.0759125   -0.0457239    0.9960656
   0.0217941   -0.0046939   -0.0019394    0.2429998    0.0902777    0.9658162
   0.0220212   -0.0041416   -0.0020479    0.3402798    0.1077058    0.9341355
   0.0223598   -0.0041913   -0.0022397    0.4343541    0.1634117    0.8857952
   0.0230493   -0.0022831   -0.0031413    0.7623074    0.2969603    0.5750670
   0.0228523   -0.0031703   -0.0027353    0.5791993    0.2032923    0.7894305
   0.0223419   -0.0076830   -0.0037359   -0.6057172   -0.6809540   -0.4115925
   0.0226617   -0.0078114   -0.0039070   -0.3073709   -0.6928378   -0.6523028
   0.0232491   -0.0074913   -0.0042723    0.1034649   -0.4615915   -0.8810382
   0.0238397   -0.0062682   -0.0037067    0.9043354    0.0716756   -0.4207613
   0.0238167   -0.0055434   -0.0035577    0.9603213    0.1435711   -0.2391033
   0.0237564   -0.0075458   -0.0039558    0.6975512   -0.2452140   -0.6732699
   0.0240419   -0.0068982   -0.0033508    0.9819331    0.0568652   -0.1804822
   0.0236855   -0.0047289   -0.0036083    0.9419068    0.1570158   -0.2969136
   0.0236919   -0.0044283   -0.0031741    0.9661739    0.2179982    0.1377854
   0.0233480   -0.0030942   -0.0031792    0.8755014    0.2447056    0.4166731
   0.0235102   -0.0035190   -0.0033232    0.9693065    0.1732361    0.1744539
   0.0234650   -0.0038764   -0.0030991    0.9307343    0.1966914    0.3082955
   0.0227923   -0.0016252   -0.0031986    0.7950904    0.4073339    0.4493443
   0.0214514   -0.0067318   -0.0022557   -0.6036196   -0.4718499    0.6426515
   0.0219373   -0.0071557   -0.0021581   -0.3945829   -0.4374523    0.8080469
   0.0219809   -0.0064167   -0.0019219   -0.0726054   -0.1533058    0.9855079
   0.0220048   -0.0075933   -0.0025407   -0.6514802   -0.6766075    0.3431849
   0.0222919   -0.0078794   -0.0030793   -0.5969100   -0.8004331   -0.0548202
   0.0053615    0.0000534    0.0011710    0.1240238    0.2103169    0.9697344
   0.0047099   -0.0004050    0.0013460    0.1766238    0.0853726    0.9805690
   0.0047701   -0.0014076    0.0012108    0.0976181   -0.3615606    0.9272241
   0.0042891   -0.0007502    0.0014200    0.1383261   -0.1329877    0.9814174
   0.0040761   -0.0020496    0.0006713   -0.1535908   -0.8105441    0.5651798
   0.0038713   -0.0024232   -0.0002917   -0.0994375   -0.9899186    0.1008633
   0.0036500   -0.0022432    0.0001373   -0.1709176   -0.9098001    0.3782207
   0.0031844   -0.0022928   -0.0001668   -0.0637239   -0.9779906    0.1986795
   0.0018115   -0.0023634   -0.0004285   -0.0250434   -0.9936363    0.1098167
   0.0019108   -0.0023821   -0.0008226   -0.0313384   -0.9990705   -0.0295971
   0.0009766   -0.0022803   -0.0012494   -0.1625549   -0.9793876   -0.1198989
   0.0008183   -0.0021059   -0.0018739   -0.3057022   -0.8600177   -0.4085533
   0.0010035   -0.0017908   -0.0023459   -0.2649434   -0.6820842   -0.6815909
   0.0040787   -0.0013522    0.0012722    0.0476385   -0.4470761    0.8932265
   0.0038415   -0.0017079    0.0009876   -0.0257468   -0.7043480    0.7093878
   0.0010088    0.0001822   -0.0029212    0.0071328    0.3532067   -0.9355181
   0.0006513   -0.0001112   -0.0029867   -0.1426595    0.0910773   -0.9855725
   0.0006633   -0.0012491   -0.0026592   -0.3573390   -0.4787850   -0.8019188
   0.0001512   -0.0002537   -0.0028452   -0.5486844   -0.2227260   -0.8058154
   0.0025678    0.0023185    0.0002733    0.0929125    0.9774554    0.1896002
   0.0013516    0.0021639    0.0002885   -0.1587328    0.9581280    0.2383161
   0.0004801    0.0020695   -0.0002770   -0.2891038    0.9572819    0.0055162
   0.0001567    0.0016963   -0.0012104   -0.4463434    0.8285504   -0.3380560
  -0.0000893    0.0007511   -0.0024186   -0.7082148    0.4890695   -0.5091589
   0.0003625    0.0002910   -0.0028476   -0.1882862    0.3246867   -0.9268909
   0.0047844    0.0005887    0.0010475    0.0941293    0.4975226    0.8623288
   0.0040452    0.0008843    0.0010075    0.2622181    0.4636728    0.8463151
   0.0025799    0.0021970    0.0006140    0.0586468    0.8879556    0.4561748
   0.0026469    0.0019703    0.0009041    0.1875492    0.7324864    0.6544379
   0.0028395    0.0016422    0.0011424    0.3132542    0.5597907    0.7671416
   0.0032717    0.0010122    0.0012815    0.3547976    0.3918028    0.8488871
   0.0045924    0.0002803    0.0012121    0.1495619    0.3242030    0.9340898
   0.0222611   -0.0057988   -0.0019120    0.2410371    0.0615243    0.9685638
   0.0229582   -0.0053679   -0.0022498    0.4063901    0.1433599    0.9023830
   0.0228327   -0.0046944   -0.0023316    0.4810296    0.2104906    0.8510607
   0.0232839   -0.0039609   -0.0027995    0.6836744    0.2231767    0.6948248
   0.0227828   -0.0080830   -0.0035570   -0.4283291   -0.8678937   -0.2515842
   0.0231585   -0.0081861   -0.0036209   -0.1412417   -0.8747595   -0.4635154
   0.0234998   -0.0080453   -0.0037885    0.2618162   -0.6893753   -0.6754361
   0.0239688   -0.0060988   -0.0031040    0.9709396    0.1362431    0.1967591
   0.0237692   -0.0055794   -0.0028812    0.9162089    0.1928175    0.3512587
   0.0237882   -0.0052799   -0.0032687    0.9831492    0.1455370    0.1106195
   0.0239360   -0.0078727   -0.0035151    0.8702368   -0.3041942   -0.3874968
   0.0240330   -0.0072086   -0.0029823    0.9675667    0.0788799    0.2399845
   0.0238018   -0.0066664   -0.0027015    0.7767089    0.1342401    0.6153884
   0.0236351   -0.0052866   -0.0028056    0.8349837    0.1984721    0.5132359
   0.0226422   -0.0078599   -0.0022807   -0.3051284   -0.6613716    0.6851892
   0.0229218   -0.0076735   -0.0021351    0.0044311   -0.3111025    0.9503660
   0.0224468   -0.0070397   -0.0020198    0.0081687   -0.1598195    0.9871125
   0.0226039   -0.0065013   -0.0020097    0.2122705    0.0005143    0.9772108
   0.0223856   -0.0078173   -0.0024316   -0.4901003   -0.7939061    0.3598815
   0.0228872   -0.0081624   -0.0027492   -0.3512077   -0.9151924    0.1976767
   0.0040896   -0.0002730    0.0014563    0.1612316    0.0646790    0.9847949
   0.0034853   -0.0009258    0.0014804    0.1312527   -0.2070550    0.9694849
   0.0034877   -0.0020684    0.0004837   -0.0308467   -0.8897023    0.4554979
   0.0022369   -0.0022802    0.0000499   -0.0084290   -0.9609839    0.2764760
   0.0009821   -0.0023009   -0.0007260   -0.1781682   -0.9833666    0.0353026
   0.0013689   -0.0022444   -0.0000469   -0.1347325   -0.9630802    0.2330745
   0.0006437   -0.0021809   -0.0013197   -0.3461100   -0.9216092   -0.1756257
  -0.0001214   -0.0010901   -0.0022411   -0.8480619   -0.3915484   -0.3570447
   0.0001662   -0.0018681   -0.0014108   -0.7680455   -0.6116753   -0.1896299
   0.0031013   -0.0012105    0.0014200    0.0925575   -0.5057787    0.8576835
   0.0031153   -0.0016142    0.0011349    0.0775173   -0.6804673    0.7286668
   0.0029485   -0.0019510    0.0007319    0.0570587   -0.8104999    0.5829530
  -0.0000790    0.0000887   -0.0027763   -0.6797063    0.0540890   -0.7314873
   0.0009949    0.0019040    0.0008447   -0.1202607    0.8997531    0.4195017
   0.0001338    0.0016681    0.0012108   -0.8956047    0.3707996    0.2457636
   0.0036157    0.0004721    0.0013266    0.2813256    0.3260273    0.9025310
   0.0021279    0.0019153    0.0010115   -0.0148998    0.7888569    0.6143963
   0.0021811    0.0016396    0.0012979    0.0879945    0.6278253    0.7733643
   0.0023361    0.0011743    0.0015604    0.1983022    0.3849171    0.9013962
   0.0026215    0.0009486    0.0015538    0.2784024    0.2443107    0.9288726
   0.0035043    0.0000683    0.0014777    0.1991391    0.1687046    0.9653405
   0.0229680   -0.0067440   -0.0020744    0.3418615    0.0349011    0.9391020
   0.0235220   -0.0059091   -0.0025044    0.6715525    0.1395890    0.7276896
   0.0232698   -0.0083062   -0.0032310   -0.0734120   -0.9958566   -0.0536691
   0.0234035   -0.0082577   -0.0034544    0.0961633   -0.9316512   -0.3503979
   0.0237414   -0.0081969   -0.0034283    0.4871771   -0.7934823   -0.3647523
   0.0239937   -0.0079379   -0.0032246    0.9338307   -0.3061654   -0.1849946
   0.0240202   -0.0078901   -0.0028630    0.9037678   -0.3044215    0.3008843
   0.0238095   -0.0077913   -0.0024846    0.7249228   -0.2263016    0.6505955
   0.0235958   -0.0076221   -0.0022904    0.5550355   -0.0606974    0.8296092
   0.0233061   -0.0074261   -0.0021609    0.3510431   -0.0239098    0.9360540
   0.0228578   -0.0078586   -0.0022526   -0.0112295   -0.5837697    0.8118417
   0.0231850   -0.0081081   -0.0024548   -0.0642247   -0.7739882    0.6299345
   0.0231927   -0.0077574   -0.0022152    0.1522130   -0.4179133    0.8956448
   0.0232285   -0.0082524   -0.0027517   -0.0429561   -0.9449223    0.3244637
   0.0035363   -0.0005137    0.0015345    0.1456214   -0.0226355    0.9890814
   0.0027249   -0.0003998    0.0016520    0.1765599   -0.0554373    0.9827275
   0.0019430   -0.0009515    0.0016978    0.1009577   -0.3684985    0.9241301
   0.0023679   -0.0021110    0.0005296    0.0164398   -0.8935235    0.4487153
   0.0017051   -0.0020730    0.0005590   -0.0767012   -0.8866798    0.4559780
