NORM_ASCII
855 1705
   0.0116240    0.0018193   -0.0036082   -0.1225523    0.7181165   -0.6850472
   0.0098091    0.0015281   -0.0035748   -0.1407276    0.6368413   -0.7580428
   0.0087396    0.0010478   -0.0037108   -0.1478558    0.5414374   -0.8276377
   0.0077930    0.0006752   -0.0037558   -0.1086756    0.4338151   -0.8944239
   0.0068478    0.0000589   -0.0039389   -0.0210821    0.3301561   -0.9436909
   0.0064797    0.0024406   -0.0016847   -0.0817643    0.9507804   -0.2988832
   0.0029491   -0.0022289   -0.0065239    0.1887758    0.6760151   -0.7122972
   0.0043661   -0.0025885   -0.0061608    0.2814149    0.9093779   -0.3063291
   0.0049913   -0.0025298   -0.0053292    0.4691352    0.7264833   -0.5021296
   0.0051663   -0.0029437   -0.0059304    0.5222897    0.8204942   -0.2323848
   0.0046338   -0.0027211   -0.0064060    0.3160674    0.7519924   -0.5784538
   0.0066595   -0.0007050   -0.0041669    0.0610025    0.1833222   -0.9811583
   0.0061389   -0.0017795   -0.0043940    0.2483492    0.1024066   -0.9632422
   0.0056375   -0.0022636   -0.0046416    0.4385944    0.2974964   -0.8480159
   0.0053922   -0.0024035   -0.0048765    0.5210932    0.4992760   -0.6922321
   0.0053485   -0.0028293   -0.0053531    0.6008193    0.6684922   -0.4383313
   0.0059977   -0.0034171   -0.0049618    0.8180127    0.5031744   -0.2786948
   0.0056933   -0.0030108   -0.0051217    0.7338561    0.4946155   -0.4656294
   0.0055579   -0.0032143   -0.0058869    0.6473119    0.7480247   -0.1464459
   0.0060341   -0.0038115   -0.0044433    0.8117397   -0.5470093   -0.2045958
   0.0061030   -0.0033500   -0.0046076    0.9178434    0.0853446   -0.3876594
   0.0058876   -0.0039908   -0.0038659    0.5106302   -0.7912487   -0.3364258
   0.0054535   -0.0031461   -0.0062390    0.6392225    0.7454557   -0.1889192
   0.0043061   -0.0041686    0.0026686    0.4932761    0.3101950    0.8126855
   0.0047035   -0.0038734    0.0023736    0.5118896    0.0595982    0.8569814
   0.0048549   -0.0042503    0.0022500    0.6393995    0.1539163    0.7533114
   0.0050599   -0.0046142    0.0022215    0.6239452   -0.3846369    0.6802550
   0.0069780   -0.0053965   -0.0007060    0.3551219   -0.6855068   -0.6355854
   0.0063152   -0.0051240   -0.0011063    0.4365383   -0.5482067   -0.7133749
   0.0056720   -0.0051444   -0.0015640    0.8057676   -0.4601772   -0.3727942
   0.0059850   -0.0048899   -0.0016667    0.4730964   -0.7665052   -0.4343380
   0.0071205   -0.0051490    0.0002539    0.1129325   -0.7811292    0.6140712
   0.0065250   -0.0049916    0.0007400    0.3307424   -0.7105749    0.6210417
   0.0060514   -0.0048541    0.0010589    0.2210472   -0.7937611    0.5666405
   0.0054494   -0.0046965    0.0015654    0.4413402   -0.6508322    0.6177671
   0.0063066   -0.0042245   -0.0029647    0.4080943   -0.8242390   -0.3925419
   0.0064174   -0.0043895   -0.0024348    0.3967056   -0.8622175   -0.3149692
   0.0063778   -0.0039302   -0.0034904    0.4401765   -0.7160985   -0.5417080
  -0.0011174   -0.0021925   -0.0015546   -0.9492813    0.3110493   -0.0459720
  -0.0011193   -0.0021637   -0.0011316   -0.9506568    0.3100414   -0.0112252
  -0.0009946   -0.0018116   -0.0006722   -0.9376580    0.3474015    0.0104699
  -0.0007254   -0.0011524   -0.0010220   -0.9135527    0.4066790   -0.0058083
  -0.0012072   -0.0024920   -0.0005558   -0.9658387    0.2580246    0.0240597
  -0.0012803   -0.0029383    0.0001477   -0.9816214    0.1874336    0.0358885
  -0.0013120   -0.0033551    0.0007922   -0.9955257    0.0858902    0.0393892
  -0.0013014   -0.0036642    0.0012790   -0.9108592   -0.3968797   -0.1132349
   0.0008659   -0.0045973    0.0041889    0.1530912    0.0914751    0.9839692
  -0.0003697   -0.0048776    0.0044031    0.2487147   -0.9309410    0.2673758
   0.0020000   -0.0046330    0.0040344    0.1929966    0.1487998    0.9698510
   0.0021883   -0.0041185    0.0035473    0.2933415    0.5173334    0.8039384
   0.0027282   -0.0041374    0.0033433    0.2840189    0.4554416    0.8437454
   0.0036826   -0.0038767    0.0029337    0.3364464    0.3078116    0.8899752
   0.0019468    0.0017018    0.0009659   -0.2070645    0.9181968    0.3376966
   0.0030533    0.0020940    0.0006992   -0.2036359    0.9232932    0.3256717
   0.0034634    0.0024059   -0.0003087   -0.1843856    0.9810407    0.0596758
   0.0036501    0.0022765    0.0004433   -0.0959490    0.9540868    0.2837466
   0.0008440    0.0014897    0.0013459   -0.5661904    0.8203134   -0.0807120
   0.0016236    0.0014179    0.0014299   -0.0763668    0.8546913    0.5134890
   0.0010216    0.0012532    0.0017156   -0.6227036    0.5959208    0.5070687
   0.0009646    0.0008969    0.0020248   -0.5373622    0.5429086    0.6453620
   0.0006754    0.0004188    0.0016243   -0.8653555    0.4110477    0.2867048
   0.0005392    0.0004945    0.0009980   -0.8418364    0.4968642    0.2108018
   0.0002563    0.0002328    0.0005039   -0.8254430    0.5319737    0.1888063
   0.0000000    0.0000000    0.0000000   -0.8316103    0.5378456    0.1383707
  -0.0004737   -0.0006649   -0.0006084   -0.8791122    0.4730630    0.0580786
  -0.0002730   -0.0004051   -0.0001026   -0.8474522    0.5181898    0.1153428
   0.0059045    0.0024981   -0.0012038   -0.0552599    0.9875767   -0.1471007
   0.0046149    0.0025176   -0.0005328   -0.0235252    0.9992526    0.0306740
   0.0039556    0.0024833   -0.0004081   -0.0940113    0.9919629    0.0846852
   0.0110480    0.0027249   -0.0021637   -0.0762848    0.9301818   -0.3590855
   0.0100350    0.0028112   -0.0016211   -0.0737829    0.9823330   -0.1719822
   0.0080226    0.0026646   -0.0014172   -0.0903513    0.9831968   -0.1586214
   0.0132190    0.0028354   -0.0023202   -0.0458663    0.9373816   -0.3452709
   0.0140220    0.0026189   -0.0028547   -0.0205441    0.8867262   -0.4618384
   0.0133030    0.0023551   -0.0032280   -0.0710292    0.8232274   -0.5632508
   0.0129760    0.0018023   -0.0038965   -0.1012887    0.7246770   -0.6816039
   0.0114230    0.0015089   -0.0038709   -0.1439723    0.6108679   -0.7785322
   0.0098919    0.0012341   -0.0038131   -0.1488230    0.5417879   -0.8272349
   0.0093895    0.0007085   -0.0040169   -0.1450651    0.3780024   -0.9143688
   0.0077358    0.0000854   -0.0039790   -0.0899027    0.2863715   -0.9538914
   0.0079130   -0.0002523   -0.0040652   -0.0765304    0.2025511   -0.9762767
   0.0070812   -0.0013064   -0.0041945    0.1072735    0.0264096   -0.9938787
   0.0079041   -0.0009262   -0.0041435   -0.0111591    0.0401246   -0.9991324
   0.0065048   -0.0026353   -0.0043080    0.3774250   -0.1104364   -0.9194314
   0.0059421   -0.0027510   -0.0045889    0.6513795    0.1849648   -0.7358619
   0.0070579   -0.0021758   -0.0041748    0.2147613   -0.1168151   -0.9696555
   0.0057833   -0.0026246   -0.0046925    0.6410430    0.4229492   -0.6404513
   0.0061805   -0.0036202   -0.0040043    0.7448837   -0.5787375   -0.3319807
   0.0062725   -0.0033751   -0.0041396    0.7038813   -0.4231476   -0.5705236
   0.0062019   -0.0030816   -0.0043338    0.6510111   -0.1449183   -0.7451062
   0.0041220   -0.0038232    0.0027206    0.4681677    0.1572006    0.8695441
   0.0039515   -0.0033208    0.0026992    0.3151158    0.0971436    0.9440684
   0.0043953   -0.0032238    0.0025490    0.3578184   -0.0367663    0.9330671
   0.0049644   -0.0033928    0.0022942    0.4217362   -0.1061210    0.9004870
   0.0052775   -0.0041613    0.0019748    0.5410757   -0.1665577    0.8243153
   0.0067798   -0.0049263   -0.0009426    0.6159864   -0.3747534   -0.6929074
   0.0071037   -0.0050617   -0.0006930    0.6643231   -0.0026719   -0.7474407
   0.0076262   -0.0053743   -0.0003295    0.7316099   -0.3909771   -0.5584657
   0.0065943   -0.0048198   -0.0011594    0.4542856   -0.6944260   -0.5580296
   0.0064739   -0.0046912   -0.0015141    0.4178733   -0.8350146   -0.3579560
   0.0069776   -0.0047711    0.0005111    0.6489075   -0.3055564    0.6968173
   0.0073620   -0.0050844    0.0001864    0.4378339    0.0490001    0.8977196
   0.0076254   -0.0053034    0.0001646    0.6250174    0.0637867    0.7780003
   0.0068743   -0.0042419    0.0010443    0.5887304   -0.4532286    0.6693134
   0.0063617   -0.0043347    0.0013331    0.4221892   -0.4952864    0.7592415
   0.0059266   -0.0045585    0.0013946    0.4000605   -0.5344912    0.7444936
   0.0060073   -0.0040933    0.0016250    0.4145327   -0.4051133    0.8148901
   0.0072526   -0.0039243   -0.0027988    0.2777781   -0.8751321   -0.3962109
   0.0071978   -0.0037363   -0.0031793    0.3045783   -0.8224781   -0.4803767
   0.0071938   -0.0041055   -0.0024214    0.2910906   -0.9073991   -0.3031389
   0.0073835   -0.0042152   -0.0017410    0.3500167   -0.9058103   -0.2387385
   0.0072908   -0.0031369   -0.0037987    0.3084602   -0.5705468   -0.7611365
   0.0075954   -0.0034193   -0.0034253    0.2424413   -0.7178618   -0.6526075
  -0.0010676   -0.0021226    0.0002742   -0.9509481    0.3064358    0.0423649
  -0.0008020   -0.0013788   -0.0001612   -0.9107262    0.4099395    0.0502735
  -0.0011693   -0.0026582    0.0011350   -0.9766830    0.2077646    0.0540749
  -0.0012247   -0.0032367    0.0016352   -0.9904641    0.1079402    0.0856144
  -0.0012281   -0.0038469    0.0020183   -0.9938974    0.0424467    0.1018145
  -0.0011464   -0.0044472    0.0028816   -0.8874784   -0.4499378   -0.0996896
   0.0003769   -0.0039896    0.0038276    0.0752553    0.4786645    0.8747668
   0.0011825   -0.0037216    0.0035775    0.1425995    0.4950951    0.8570567
   0.0012945   -0.0043928    0.0039988    0.1520695    0.5519343    0.8199045
  -0.0007603   -0.0044488    0.0041481    0.1497708    0.5624222    0.8131728
  -0.0006376   -0.0048903    0.0044951   -0.2398998   -0.1521553    0.9587997
  -0.0010348   -0.0047533    0.0037606   -0.7595702   -0.6477629    0.0587908
   0.0017045   -0.0042899    0.0038307    0.2073462    0.5553289    0.8053678
   0.0017751   -0.0033719    0.0032694    0.2213602    0.4594007    0.8602039
   0.0022208   -0.0031673    0.0030521    0.2151818    0.3726891    0.9026625
   0.0028470   -0.0033032    0.0029460    0.2025093    0.2791498    0.9386508
   0.0032750   -0.0031118    0.0028085    0.1809056    0.1712864    0.9684700
   0.0026189    0.0017815    0.0011846   -0.1731970    0.8686316    0.4642004
   0.0035872    0.0020465    0.0009628   -0.0175791    0.8636592    0.5037695
   0.0042078    0.0022872    0.0004242    0.0496191    0.9100317    0.4115584
   0.0042434    0.0024217    0.0000290   -0.0185928    0.9719095    0.2346192
   0.0017831    0.0011119    0.0018096   -0.0395529    0.6718601    0.7396213
   0.0028017    0.0015467    0.0015770   -0.0799647    0.7560816    0.6495739
   0.0016936    0.0006624    0.0021157   -0.0449611    0.4775808    0.8774366
   0.0009424    0.0004551    0.0022728   -0.4927082    0.3290944    0.8055653
   0.0004983   -0.0002477    0.0019842   -0.7320095    0.4386853    0.5212651
   0.0002191   -0.0001667    0.0012937   -0.7964964    0.5338751    0.2838500
  -0.0001770   -0.0004656    0.0006292   -0.8195381    0.5442746    0.1792271
  -0.0005456   -0.0009506    0.0002620   -0.8647233    0.4906548    0.1072917
   0.0059340    0.0025338   -0.0008145   -0.0523037    0.9985264   -0.0144719
   0.0059142    0.0024960   -0.0003804   -0.0079350    0.9777684    0.2095373
   0.0127170    0.0029233   -0.0018884   -0.0392405    0.9821685   -0.1838620
   0.0114290    0.0029140   -0.0013475   -0.0469524    0.9984342    0.0304079
   0.0080715    0.0026956   -0.0010302   -0.0629405    0.9954172    0.0719933
   0.0140360    0.0028286   -0.0023823    0.0300160    0.9456017   -0.3239391
   0.0143240    0.0029096   -0.0019999    0.0432346    0.9829820   -0.1785415
   0.0150800    0.0025576   -0.0029158    0.0262638    0.9175843   -0.3966728
   0.0143910    0.0023586   -0.0033087   -0.0249730    0.8344432   -0.5505278
   0.0144890    0.0017741   -0.0040713   -0.0545134    0.7356258   -0.6751911
   0.0135180    0.0014270   -0.0042996   -0.0871582    0.5979063   -0.7968133
   0.0123120    0.0012099   -0.0042774   -0.1466437    0.5297149   -0.8354028
   0.0117470    0.0009469   -0.0043173   -0.1577848    0.4308700   -0.8885128
   0.0107780    0.0010164   -0.0040952   -0.1514758    0.4745656   -0.8670886
   0.0101030    0.0002527   -0.0042698   -0.1216508    0.1881498   -0.9745772
   0.0094500    0.0004018   -0.0041379   -0.1386645    0.2508401   -0.9580456
   0.0111070    0.0006828   -0.0042957   -0.1500416    0.2915936   -0.9447014
   0.0087316   -0.0003179   -0.0041618   -0.1078217    0.0881891   -0.9902511
   0.0081893   -0.0015809   -0.0041067    0.0601331   -0.1400639   -0.9883148
   0.0092553   -0.0008726   -0.0042137   -0.0541179   -0.0722566   -0.9959168
   0.0071438   -0.0027976   -0.0040217    0.3174024   -0.3113322   -0.8957276
   0.0077276   -0.0021246   -0.0040520    0.1687483   -0.2689349   -0.9482605
   0.0035480   -0.0025323    0.0027328    0.1149442    0.0420223    0.9924827
   0.0041567   -0.0026736    0.0026296    0.2523709    0.0226391    0.9673657
   0.0045398   -0.0024129    0.0025033    0.3467678    0.0625431    0.9358635
   0.0052522   -0.0027718    0.0022019    0.4060778   -0.0047229    0.9138263
   0.0061092   -0.0036548    0.0017496    0.4195457   -0.2199914    0.8806731
   0.0070494   -0.0044443   -0.0005804    0.5975956   -0.6437893   -0.4779276
   0.0070035   -0.0045566   -0.0012338    0.5013467   -0.8250906   -0.2605323
   0.0074287   -0.0045493   -0.0004122    0.6974791   -0.6510315   -0.2994677
   0.0073614   -0.0047608   -0.0002617    0.8257484    0.2720430   -0.4940973
   0.0075884   -0.0049069   -0.0001366    0.9322746    0.3345981   -0.1375068
   0.0074463   -0.0050050    0.0001064    0.6283773    0.2437521    0.7387333
   0.0073317   -0.0045559    0.0000271    0.7987664   -0.0885925    0.5950828
   0.0072617   -0.0043671    0.0005439    0.7217111   -0.5217677    0.4548533
   0.0079204   -0.0034836    0.0004208    0.6538878   -0.4846909    0.5809522
   0.0068122   -0.0038056    0.0013278    0.5320049   -0.3170832    0.7851299
   0.0080967   -0.0039530   -0.0021384    0.2759347   -0.9405883   -0.1978729
   0.0080163   -0.0036196   -0.0030079    0.1943930   -0.8352725   -0.5143259
   0.0081194   -0.0037626   -0.0026705    0.1925079   -0.9210317   -0.3385872
   0.0079885   -0.0040605   -0.0013651    0.4026601   -0.9100636   -0.0982299
   0.0075709   -0.0043055   -0.0011249    0.4104806   -0.9078630   -0.0853838
   0.0079942   -0.0029686   -0.0037047    0.1963041   -0.4774902   -0.8564274
   0.0085575   -0.0033415   -0.0032344    0.1394104   -0.7659710   -0.6275772
   0.0085407   -0.0030306   -0.0035464    0.1417548   -0.5800135   -0.8021782
  -0.0010170   -0.0020752    0.0010935   -0.9411579    0.3335164    0.0546678
  -0.0008354   -0.0015847    0.0007052   -0.9009520    0.4274134    0.0748547
  -0.0010469   -0.0022715    0.0016746   -0.9555146    0.2901574    0.0529198
  -0.0011290   -0.0027740    0.0021718   -0.9887476    0.1438969    0.0408882
  -0.0011708   -0.0033353    0.0023391   -0.9950752    0.0609406    0.0781760
  -0.0011464   -0.0037397    0.0027748   -0.9964665    0.0174164    0.0821657
  -0.0010996   -0.0039627    0.0034542   -0.9975661   -0.0690570    0.0096414
  -0.0000068   -0.0032819    0.0035370    0.1282126    0.4190835    0.8988496
  -0.0013742   -0.0040566    0.0040429   -0.4122577    0.3074513    0.8576231
   0.0014222   -0.0026626    0.0030080    0.1545731    0.3778523    0.9128717
  -0.0009070   -0.0046139    0.0043178   -0.6545790   -0.1023615    0.7490317
  -0.0010280   -0.0045129    0.0041084   -0.9197623   -0.3857242   -0.0724857
   0.0018685   -0.0024658    0.0028665    0.1013558    0.2721485    0.9569024
   0.0024449   -0.0025265    0.0028162    0.0867304    0.2075358    0.9743751
   0.0029378   -0.0024086    0.0027630    0.0733171    0.1114817    0.9910582
   0.0047054    0.0020088    0.0007657    0.1460854    0.7755662    0.6141303
   0.0037611    0.0018087    0.0012642    0.0974079    0.7495785    0.6547090
   0.0055319    0.0023362    0.0001030    0.0494888    0.8912955    0.4507141
   0.0027360    0.0012209    0.0018728   -0.0676638    0.6066290    0.7921003
   0.0034615    0.0014290    0.0016936    0.1369796    0.6296083    0.7647418
   0.0016507    0.0001721    0.0023378   -0.1221968    0.3422905    0.9316143
   0.0012560   -0.0001501    0.0024163   -0.1093431    0.2255744    0.9680704
   0.0022864    0.0005608    0.0022669   -0.0947838    0.4645281    0.8804713
   0.0007954   -0.0003656    0.0023236   -0.4164229    0.2703004    0.8680609
   0.0003670   -0.0009978    0.0024307   -0.3275109    0.5443374    0.7722910
  -0.0000114   -0.0008516    0.0019535   -0.6460056    0.6360442    0.4220481
  -0.0002359   -0.0008268    0.0014078   -0.7638635    0.5983365    0.2418800
  -0.0005612   -0.0011837    0.0011045   -0.8375392    0.5285605    0.1383907
   0.0075365    0.0025802   -0.0004589   -0.0113030    0.9370055    0.3491318
   0.0135920    0.0029801   -0.0015534    0.0044105    0.9998859   -0.0144495
   0.0127380    0.0029151   -0.0009838   -0.0120653    0.9762899    0.2161305
   0.0113590    0.0028680   -0.0009528   -0.0418583    0.9697655    0.2404221
   0.0101900    0.0027723   -0.0007522   -0.0465596    0.9512426    0.3049094
   0.0091071    0.0026898   -0.0006985   -0.0391609    0.9463808    0.3206708
   0.0154140    0.0026932   -0.0024660    0.0429943    0.9618614   -0.2701373
   0.0157490    0.0027763   -0.0019476    0.0471356    0.9914582   -0.1216091
   0.0145080    0.0029349   -0.0016112    0.0757636    0.9970263   -0.0140831
   0.0159840    0.0025208   -0.0029608   -0.0210552    0.9393977   -0.3421821
   0.0159730    0.0023317   -0.0033910   -0.0504362    0.8779574   -0.4760745
   0.0158670    0.0020536   -0.0038377   -0.0734658    0.8006790   -0.5945721
   0.0157560    0.0016860   -0.0042479   -0.0602953    0.6836016   -0.7273605
   0.0147180    0.0011482   -0.0045836   -0.0568819    0.5218800   -0.8511203
   0.0136110    0.0009174   -0.0046260   -0.1187438    0.3906268   -0.9128585
   0.0128000    0.0010900   -0.0044377   -0.1406182    0.4280543   -0.8927464
   0.0120140    0.0006374   -0.0044657   -0.1551099    0.2636563   -0.9520642
   0.0107330    0.0001096   -0.0043532   -0.1149171    0.0710215   -0.9908330
   0.0094688   -0.0004414   -0.0042484   -0.1003489    0.0173349   -0.9948013
   0.0082267   -0.0023980   -0.0039232    0.0953800   -0.3425286   -0.9346533
   0.0088087   -0.0017454   -0.0040773    0.0133010   -0.2526087   -0.9674771
   0.0111320   -0.0001657   -0.0043944   -0.0845901   -0.0920095   -0.9921586
   0.0106200   -0.0008162   -0.0042611   -0.0270343   -0.1987004   -0.9796874
   0.0031277   -0.0016304    0.0027307    0.0055356    0.0528634    0.9985864
   0.0036609   -0.0015890    0.0027063    0.1428545    0.0706956    0.9872156
   0.0038818   -0.0009027    0.0025757    0.2969673    0.1909656    0.9355975
   0.0045635   -0.0009817    0.0022967    0.3889835    0.1944915    0.9004804
   0.0049019   -0.0020069    0.0023123    0.3977358    0.1118263    0.9106597
   0.0066723   -0.0024543    0.0015550    0.3971083    0.0074480    0.9177415
   0.0065404   -0.0034257    0.0015903    0.4596212   -0.1206472    0.8798822
   0.0056669   -0.0017094    0.0019298    0.3770492    0.1055063    0.9201643
   0.0076179   -0.0043074   -0.0007251    0.4069617   -0.8899632   -0.2057855
   0.0077841   -0.0042346   -0.0004655    0.6758773   -0.7356561    0.0447217
   0.0074173   -0.0046014   -0.0001385    0.9587663   -0.1662718   -0.2304794
   0.0072715   -0.0046061   -0.0002400    0.9634673   -0.2041111   -0.1734052
   0.0075302   -0.0047126    0.0000072    0.8161733    0.4332756    0.3822740
   0.0076766   -0.0040913    0.0000961    0.7179564   -0.5823216    0.3813661
   0.0084794   -0.0035233   -0.0002368    0.4990053   -0.7144513    0.4904621
   0.0083580   -0.0030155    0.0003775    0.4920349   -0.5222265    0.6965495
   0.0080605   -0.0039167   -0.0002728    0.6390355   -0.6996473    0.3195736
   0.0078420   -0.0029554    0.0008212    0.5664466   -0.3077754    0.7644688
   0.0071530   -0.0030897    0.0012692    0.5427760   -0.1668719    0.8231330
   0.0084798   -0.0038568   -0.0010304    0.3930930   -0.9105340    0.1280850
   0.0087078   -0.0038338   -0.0019248    0.1828274   -0.9789076   -0.0911815
   0.0088742   -0.0035581   -0.0028531    0.1289724   -0.8786096   -0.4597948
   0.0087136   -0.0037348   -0.0024599    0.1187059   -0.9615540   -0.2476345
   0.0079044   -0.0041333   -0.0007321    0.5366563   -0.8437609    0.0082173
   0.0094278   -0.0030795   -0.0033860    0.1144332   -0.6535369   -0.7481942
   0.0099780   -0.0033639   -0.0029551    0.1254157   -0.8140798   -0.5670493
   0.0091503   -0.0026177   -0.0037214    0.0718888   -0.4522736   -0.8889773
  -0.0008584   -0.0017861    0.0015125   -0.8901895    0.4473375    0.0863242
  -0.0009833   -0.0021520    0.0022960   -0.9464906    0.3220565   -0.0208599
  -0.0011345   -0.0027074    0.0029732   -0.9899798    0.0513143   -0.1315553
  -0.0011345   -0.0032730    0.0029115   -0.9999041    0.0025475    0.0136128
  -0.0011531   -0.0038410    0.0038003   -0.9018042   -0.2039610   -0.3809845
  -0.0011586   -0.0033236    0.0034484   -0.9873692   -0.1167189   -0.1071386
  -0.0007898   -0.0030883    0.0035736    0.0995034    0.3811468    0.9191443
  -0.0011553   -0.0034237    0.0037100   -0.9306141    0.1064952    0.3501658
   0.0010766   -0.0020067    0.0028156    0.1376887    0.3126246    0.9398445
   0.0013455   -0.0014524    0.0026325    0.0448699    0.2429213    0.9690077
   0.0017964   -0.0012343    0.0026024   -0.0368818    0.1486393    0.9882035
   0.0025460   -0.0016001    0.0026972   -0.0372386    0.0854369    0.9956474
   0.0052978    0.0016833    0.0009556    0.1543592    0.6522482    0.7421223
   0.0057099    0.0021057    0.0004482    0.0607187    0.7904505    0.6095090
   0.0029852    0.0007923    0.0021732    0.0416742    0.4963243    0.8671364
   0.0046621    0.0011779    0.0014809    0.2410029    0.4909261    0.8372032
   0.0036101    0.0010296    0.0019357    0.2315051    0.4838541    0.8439731
   0.0026643   -0.0006690    0.0026503   -0.0564511    0.1426133    0.9881674
   0.0025889    0.0001702    0.0024558   -0.0356659    0.3230396    0.9457131
   0.0009150   -0.0008896    0.0025047   -0.1302855    0.2735507    0.9529930
  -0.0002947   -0.0014092    0.0025359   -0.3953803    0.7882662    0.4714985
  -0.0001369   -0.0017344    0.0029811    0.0171706    0.5602548    0.8281423
   0.0008097   -0.0014791    0.0027100    0.0884812    0.3485031    0.9331220
  -0.0005876   -0.0014595    0.0020256   -0.7625751    0.6287337    0.1522272
   0.0078596    0.0023749   -0.0000685    0.0007924    0.8616456    0.5075098
   0.0139550    0.0029422   -0.0011647    0.0402691    0.9893803    0.1396602
   0.0139450    0.0028451   -0.0007604    0.0333738    0.9404292    0.3383475
   0.0120390    0.0026512   -0.0002777   -0.0173971    0.8987867    0.4380409
   0.0115130    0.0027528   -0.0005512   -0.0372677    0.9243989    0.3796021
   0.0103920    0.0025752   -0.0002846   -0.0456513    0.9042268    0.4246055
   0.0094085    0.0023829   -0.0000461   -0.0394024    0.8594436    0.5097098
   0.0092424    0.0025754   -0.0004031   -0.0269489    0.8890990    0.4569210
   0.0169010    0.0027001   -0.0024863   -0.0102191    0.9799508   -0.1989772
   0.0174290    0.0028199   -0.0015417    0.0527738    0.9981926    0.0287492
   0.0159570    0.0028004   -0.0013714    0.0489440    0.9986078    0.0196698
   0.0150850    0.0028557   -0.0011343    0.0674167    0.9811240    0.1812474
   0.0172720    0.0025133   -0.0032487   -0.0279993    0.9273312   -0.3731928
   0.0170600    0.0022712   -0.0036980   -0.0393895    0.8457587   -0.5321097
   0.0173180    0.0019773   -0.0040910    0.0482387    0.7120730   -0.7004463
   0.0166570    0.0014406   -0.0045255   -0.0001927    0.5528557   -0.8332770
   0.0157610    0.0008677   -0.0047841   -0.0405406    0.4011480   -0.9151157
   0.0146540    0.0006180   -0.0048247   -0.0499269    0.3317514   -0.9420448
   0.0140580    0.0007512   -0.0047428   -0.0715354    0.3724436   -0.9252937
   0.0138310    0.0004472   -0.0048177   -0.1091796    0.2493373   -0.9622425
   0.0127600    0.0005580   -0.0046050   -0.1641292    0.2023989   -0.9654513
   0.0132840    0.0002824   -0.0047621   -0.1812318    0.1798192   -0.9668610
   0.0120400    0.0002432   -0.0045209   -0.1466387    0.0253620   -0.9888649
   0.0092922   -0.0020394   -0.0039828    0.0276269   -0.3506183   -0.9361109
   0.0108290   -0.0012036   -0.0041516    0.0299053   -0.3092959   -0.9504955
   0.0115360   -0.0004365   -0.0043950   -0.0925619   -0.1836313   -0.9786275
   0.0031369   -0.0004232    0.0026228    0.0791500    0.2044818    0.9756651
   0.0034146    0.0003165    0.0023552    0.2082875    0.3586882    0.9099226
   0.0042141    0.0000253    0.0021679    0.3625242    0.2850649    0.8873073
   0.0054154   -0.0008727    0.0018924    0.3514714    0.1880846    0.9171107
   0.0047617    0.0004389    0.0017938    0.3234563    0.3296426    0.8869678
   0.0074186   -0.0025047    0.0011957    0.4486866   -0.1560124    0.8799662
   0.0069282   -0.0019000    0.0014604    0.3148909   -0.0268426    0.9487482
   0.0061876   -0.0014250    0.0017020    0.3235709    0.0755494    0.9431830
   0.0058578   -0.0006922    0.0017070    0.2702926    0.1511336    0.9508420
   0.0089449   -0.0033579   -0.0003583    0.3143952   -0.7429998    0.5908527
   0.0092620   -0.0035158   -0.0008528    0.2485284   -0.8978507    0.3634525
   0.0088176   -0.0028812    0.0002049    0.3129752   -0.6031720    0.7336416
   0.0086749   -0.0024192    0.0005799    0.3418783   -0.4658762    0.8161364
   0.0081843   -0.0024726    0.0007864    0.4585364   -0.3623434    0.8114503
   0.0088966   -0.0037692   -0.0014344    0.2239903   -0.9641936    0.1419825
   0.0095995   -0.0037081   -0.0020223    0.1352634   -0.9906144   -0.0196688
   0.0105120   -0.0035413   -0.0024880    0.1249256   -0.9502442   -0.2853587
   0.0101330   -0.0024612   -0.0037136    0.1281026   -0.5139935   -0.8481747
   0.0102310   -0.0031108   -0.0032100    0.1506862   -0.7065935   -0.6913894
   0.0112440   -0.0033761   -0.0025690    0.1621489   -0.8807428   -0.4449717
   0.0100510   -0.0020022   -0.0039402    0.0917134   -0.3899640   -0.9162515
  -0.0010834   -0.0019897    0.0032523   -0.7317905    0.6235755    0.2750204
  -0.0013149   -0.0028570    0.0035761   -0.4271191    0.2514036    0.8685422
   0.0063904    0.0019008    0.0006150    0.0546829    0.6791125    0.7319945
   0.0056220    0.0013741    0.0011385    0.1192019    0.5441015    0.8305086
   0.0073464    0.0019308    0.0005515    0.0231770    0.7101569    0.7036619
   0.0051379    0.0007701    0.0015440    0.2241218    0.3777169    0.8983871
   0.0082036    0.0021136    0.0003194   -0.0058639    0.8018790    0.5974576
   0.0141020    0.0026793   -0.0003852    0.0383094    0.9060985    0.4213288
   0.0126830    0.0025295   -0.0000611    0.0107875    0.8587842    0.5122239
   0.0117340    0.0022974    0.0002915   -0.0169009    0.8015536    0.5976841
   0.0104520    0.0023213    0.0001553   -0.0467829    0.8303108    0.5553335
   0.0090992    0.0020243    0.0004388   -0.0264887    0.7554214    0.6547036
   0.0181420    0.0027516   -0.0020589    0.1772936    0.9820566   -0.0642799
   0.0181150    0.0026661   -0.0026972    0.1569340    0.9629621   -0.2192619
   0.0172430    0.0027085   -0.0007118    0.0455698    0.9573252    0.2853976
   0.0181160    0.0026887   -0.0010775    0.3703728    0.9053048    0.2079598
   0.0183530    0.0026700   -0.0015965    0.3876316    0.9181248    0.0823931
   0.0161810    0.0027624   -0.0009683    0.0326992    0.9848169    0.1704889
   0.0152540    0.0027387   -0.0006712    0.0415306    0.9384311    0.3429611
   0.0179710    0.0022875   -0.0036342    0.1733275    0.8033046   -0.5697889
   0.0179850    0.0025162   -0.0032272    0.2004877    0.8930330   -0.4028606
   0.0182510    0.0020191   -0.0037760    0.3794085    0.6351700   -0.6727616
   0.0179030    0.0017261   -0.0042013    0.3485410    0.4894388   -0.7993553
   0.0172110    0.0010822   -0.0047034    0.1409306    0.4026555   -0.9044375
   0.0162550    0.0006976   -0.0048850    0.0011475    0.3014018   -0.9534965
   0.0150150    0.0002777   -0.0049352   -0.0451055    0.1896993   -0.9808056
   0.0140810   -0.0001824   -0.0049532   -0.1456078    0.0022917   -0.9893397
   0.0124280   -0.0000265   -0.0045990   -0.1949460   -0.0447748   -0.9797914
   0.0117200   -0.0008060   -0.0043059   -0.0872409   -0.3406855   -0.9361209
   0.0113460   -0.0016021   -0.0039381    0.0875556   -0.4467895   -0.8903444
   0.0054133    0.0002316    0.0016456    0.2451051    0.2463418    0.9376776
   0.0082743   -0.0020527    0.0009166    0.3551171   -0.3209304    0.8780066
   0.0074395   -0.0018640    0.0012811    0.3309904   -0.1536884    0.9310345
   0.0073941   -0.0013516    0.0013468    0.2251665   -0.1040020    0.9687536
   0.0067695   -0.0003463    0.0014988    0.1299839    0.0144816    0.9914103
   0.0063276   -0.0005581    0.0015797    0.2210703    0.0923734    0.9708734
   0.0061766    0.0003159    0.0014744    0.1224308    0.1796819    0.9760764
   0.0096963   -0.0031889   -0.0004090    0.1639570   -0.8265099    0.5385160
   0.0095834   -0.0029157   -0.0000645    0.1353484   -0.6651902    0.7343043
   0.0104280   -0.0034489   -0.0012948    0.1228908   -0.9511339    0.2832704
   0.0104570   -0.0032515   -0.0007688    0.1184181   -0.8943656    0.4313784
   0.0096496   -0.0036202   -0.0014116    0.1680148   -0.9632241    0.2096912
   0.0092383   -0.0025560    0.0003070    0.2208418   -0.5469238    0.8075291
   0.0090337   -0.0019155    0.0007270    0.2372530   -0.4219189    0.8750403
   0.0104470   -0.0036021   -0.0020435    0.1220467   -0.9900848    0.0695459
   0.0112610   -0.0035091   -0.0020722    0.1325675   -0.9875695   -0.0844536
   0.0109500   -0.0027185   -0.0033887    0.1625014   -0.5668084   -0.8076643
   0.0117510   -0.0031117   -0.0028172    0.1497838   -0.7513970   -0.6426254
   0.0117090   -0.0034072   -0.0022887    0.1527350   -0.9416971   -0.2997976
   0.0065721    0.0016262    0.0008629    0.0575759    0.6347148    0.7705985
   0.0068152    0.0012087    0.0011409    0.0361835    0.5250382    0.8503091
   0.0059111    0.0008885    0.0013474    0.1128251    0.3562839    0.9275410
   0.0078115    0.0016604    0.0008110   -0.0031511    0.6627250    0.7488562
   0.0143340    0.0025720   -0.0002106    0.0427615    0.8524073    0.5211269
   0.0133580    0.0023785    0.0001365    0.0360809    0.7982490    0.6012459
   0.0124130    0.0021656    0.0004565    0.0261899    0.7380640    0.6742222
   0.0113500    0.0017916    0.0008353   -0.0194716    0.6390718    0.7689006
   0.0108280    0.0019860    0.0006306   -0.0374087    0.7073878    0.7058351
   0.0104370    0.0021438    0.0003966   -0.0629366    0.7945801    0.6038887
   0.0092791    0.0017608    0.0007395   -0.0502415    0.7164921    0.6957836
   0.0086026    0.0014984    0.0009413   -0.0111337    0.6015903    0.7987272
   0.0185100    0.0025927   -0.0023105    0.4915141    0.8660635   -0.0913666
   0.0184390    0.0025125   -0.0028530    0.3825646    0.8693701   -0.3127940
   0.0171870    0.0025189   -0.0002632    0.0727260    0.8383389    0.5402767
   0.0180100    0.0026011   -0.0006187    0.2919418    0.8807322    0.3729354
   0.0160250    0.0024183   -0.0000497    0.0250283    0.8038864    0.5942560
   0.0158950    0.0026370   -0.0004603    0.0260001    0.9279507    0.3717949
   0.0184300    0.0023466   -0.0008390    0.6361266    0.6939497    0.3373082
   0.0186910    0.0024171   -0.0015820    0.6069966    0.7756259    0.1730886
   0.0150480    0.0024905   -0.0001277    0.0281511    0.8238605    0.5660931
   0.0185100    0.0022562   -0.0032982    0.5175445    0.7113204   -0.4755743
   0.0184660    0.0020685   -0.0035656    0.6917192    0.4408575   -0.5719870
   0.0180240    0.0011004   -0.0044211    0.4578781    0.3296412   -0.8256418
   0.0185190    0.0013186   -0.0039870    0.6082143    0.3396415   -0.7174392
   0.0172770    0.0006620   -0.0048286    0.1179837    0.2604154   -0.9582607
   0.0179430    0.0004823   -0.0047022    0.4608754    0.2055330   -0.8633366
   0.0164490    0.0001854   -0.0049856    0.0322543    0.1755098   -0.9839492
   0.0151870   -0.0000954   -0.0049988   -0.0584244    0.0973626   -0.9935326
   0.0142690   -0.0004181   -0.0049476   -0.0946099   -0.0972303   -0.9907549
   0.0135110   -0.0006679   -0.0047777   -0.2113351   -0.2602598   -0.9421265
   0.0126020   -0.0003743   -0.0045953   -0.2171140   -0.2059984   -0.9541626
   0.0121550   -0.0010848   -0.0042382   -0.1822814   -0.4263651   -0.8859945
   0.0118870   -0.0015744   -0.0039474   -0.0256054   -0.5159281   -0.8562491
   0.0117120   -0.0022269   -0.0035455    0.1038594   -0.5124267   -0.8524272
   0.0082344   -0.0016671    0.0010636    0.2598303   -0.2755633    0.9255015
   0.0086648   -0.0009131    0.0011872    0.1294671   -0.2459774    0.9605901
   0.0075288   -0.0008275    0.0013700    0.1288532   -0.1117038    0.9853523
   0.0078122   -0.0002271    0.0013968    0.0732160   -0.0527036    0.9959226
   0.0072900    0.0003066    0.0014158    0.0507906    0.1071747    0.9929420
   0.0074857    0.0007660    0.0013154    0.0306944    0.2996885    0.9535432
   0.0104870   -0.0028666   -0.0000961    0.0405219   -0.8191352    0.5721673
   0.0106120   -0.0026843    0.0001018   -0.0438805   -0.5701595    0.8203613
   0.0102860   -0.0023328    0.0002681    0.0738149   -0.4833455    0.8723121
   0.0097202   -0.0024047    0.0003211    0.1622022   -0.5290132    0.8329679
   0.0112080   -0.0034674   -0.0016610    0.0981798   -0.9767974    0.1903356
   0.0123560   -0.0031695   -0.0009990    0.1094598   -0.9336584    0.3410286
   0.0112960   -0.0030827   -0.0005001    0.0623227   -0.9092751    0.4115029
   0.0097225   -0.0015904    0.0007251    0.1445710   -0.4442252    0.8841738
   0.0090714   -0.0012118    0.0010197    0.1610274   -0.3824491    0.9098367
   0.0123160   -0.0033528   -0.0016628    0.1131583   -0.9904954    0.0781921
   0.0121840   -0.0023415   -0.0033968    0.0839803   -0.5996399   -0.7958513
   0.0122590   -0.0027469   -0.0030746    0.0663377   -0.6244304   -0.7782583
   0.0128640   -0.0027113   -0.0030431    0.0288250   -0.7078559   -0.7057685
   0.0126200   -0.0031324   -0.0025263    0.0839031   -0.8476569   -0.5238683
   0.0128490   -0.0032749   -0.0021709    0.0754302   -0.9707630   -0.2278806
   0.0079192    0.0012427    0.0011118    0.0070981    0.4887083    0.8724184
   0.0140270    0.0022236    0.0002758    0.0637765    0.7116997    0.6995828
   0.0130700    0.0019941    0.0005691    0.0657690    0.6590277    0.7492376
   0.0117670    0.0016341    0.0009549    0.0239900    0.5332396    0.8456240
   0.0107420    0.0012163    0.0011715   -0.0115119    0.4062796    0.9136763
   0.0099996    0.0012827    0.0011129   -0.0372925    0.4434350    0.8955304
   0.0094870    0.0014230    0.0010065   -0.0165223    0.5213223    0.8531999
   0.0085908    0.0010308    0.0012032    0.0098350    0.3794362    0.9251656
   0.0185590    0.0023975   -0.0029806    0.6784139    0.6693216   -0.3029245
   0.0189840    0.0022357   -0.0023620    0.6577873    0.7430421   -0.1233057
   0.0176970    0.0023725   -0.0001727    0.1523591    0.7345749    0.6612007
   0.0163850    0.0021475    0.0002240    0.0564488    0.6459583    0.7612828
   0.0181520    0.0024521   -0.0004354    0.4958266    0.6862968    0.5321210
   0.0153480    0.0019159    0.0004314    0.0514312    0.5444915    0.8371880
   0.0151310    0.0022043    0.0002077    0.0270774    0.7031725    0.7105035
   0.0190320    0.0019214   -0.0010210    0.6009761    0.7030577    0.3801810
   0.0184420    0.0018048   -0.0002455    0.5555702    0.5563036    0.6179547
   0.0191840    0.0020428   -0.0017007    0.6543442    0.7421138    0.1452607
   0.0144610    0.0019612    0.0004649    0.0709319    0.6009056    0.7961665
   0.0191710    0.0013339   -0.0032715    0.7239515    0.3832481   -0.5735984
   0.0189320    0.0020224   -0.0030031    0.6986125    0.5847267   -0.4123533
   0.0184780    0.0005409   -0.0042739    0.6280483    0.2180488   -0.7470007
   0.0189490    0.0007090   -0.0038206    0.6939777    0.2120963   -0.6880480
   0.0176350    0.0002689   -0.0048643    0.2587387    0.1542300   -0.9535551
   0.0180850    0.0006240   -0.0046243    0.4310086    0.1112237   -0.8954669
   0.0178920   -0.0004572   -0.0048463    0.3913072   -0.0060766   -0.9202401
   0.0183880   -0.0002735   -0.0045910    0.6079947    0.0571477   -0.7918817
   0.0167220   -0.0005826   -0.0051061    0.0401567    0.0371195   -0.9985037
   0.0172500   -0.0005418   -0.0050435    0.1875253    0.0770012   -0.9792370
   0.0161400   -0.0004417   -0.0050793   -0.0879795    0.0311080   -0.9956364
   0.0155590   -0.0005386   -0.0050357   -0.0811507   -0.0553931   -0.9951614
   0.0150060   -0.0008327   -0.0049406   -0.1287014   -0.3049897   -0.9436192
   0.0139880   -0.0009596   -0.0047680   -0.1468872   -0.3843212   -0.9114392
   0.0132830   -0.0011701   -0.0045034   -0.1948225   -0.5493437   -0.8125674
   0.0124650   -0.0014318   -0.0040809   -0.1390447   -0.5630062   -0.8146721
   0.0126630   -0.0018682   -0.0037772   -0.0855560   -0.6543415   -0.7513437
   0.0106610   -0.0003892    0.0011839    0.0803968   -0.3539237    0.9318124
   0.0105190    0.0000060    0.0013156    0.0497247   -0.1499290    0.9874456
   0.0090115   -0.0000687    0.0013616    0.0426881   -0.1005393    0.9940169
   0.0082975   -0.0006759    0.0012903    0.1070473   -0.1821178    0.9774323
   0.0083667    0.0003839    0.0013775    0.0187761    0.1349121    0.9906797
   0.0113440   -0.0028480   -0.0000232    0.0154393   -0.8119686    0.5834969
   0.0117570   -0.0025180    0.0003397   -0.0499232   -0.6511186    0.7573323
   0.0112350   -0.0020241    0.0004985   -0.1725064   -0.4123443    0.8945467
   0.0105700   -0.0017406    0.0005414   -0.0048908   -0.4355567    0.9001480
   0.0135040   -0.0032421   -0.0016010    0.0465310   -0.9857897    0.1614111
   0.0135930   -0.0030486   -0.0011072    0.1045741   -0.8980074    0.4273723
   0.0133260   -0.0027903   -0.0005185    0.1638675   -0.8639973    0.4760841
   0.0122610   -0.0027368   -0.0000015    0.1372984   -0.8446847    0.5173557
   0.0106180   -0.0010403    0.0009057    0.0613559   -0.4252150    0.9030103
   0.0134200   -0.0022541   -0.0035051   -0.0761265   -0.6991577   -0.7109031
   0.0142690   -0.0025857   -0.0032425   -0.0622699   -0.7602324   -0.6466600
   0.0135250   -0.0029000   -0.0028211   -0.0015887   -0.7927102   -0.6095966
   0.0140130   -0.0030294   -0.0026378   -0.0113821   -0.8623424   -0.5061976
   0.0138210   -0.0032475   -0.0021955   -0.0003342   -0.9706858   -0.2403518
   0.0127600    0.0015732    0.0009090    0.0887827    0.5005533    0.8611411
   0.0118210    0.0012558    0.0011516    0.0393051    0.3412962    0.9391337
   0.0109460    0.0008170    0.0012982    0.0139043    0.2020976    0.9792667
   0.0101140    0.0008030    0.0012887   -0.0255439    0.2376820    0.9710071
   0.0094485    0.0004523    0.0013497    0.0050680    0.1539074    0.9880723
   0.0089962    0.0007971    0.0012815   -0.0003081    0.3108439    0.9504609
   0.0194020    0.0018686   -0.0020575    0.7426675    0.6679639   -0.0476375
   0.0193450    0.0017504   -0.0026012    0.7505463    0.5769884   -0.3221252
   0.0169810    0.0018691    0.0003742    0.1033318    0.5267496    0.8437164
   0.0178790    0.0021884   -0.0000499    0.3410906    0.5572669    0.7570408
   0.0157670    0.0016416    0.0005596    0.0345574    0.4215680    0.9061381
   0.0150420    0.0013700    0.0006962    0.0757524    0.3341081    0.9394857
   0.0144420    0.0014979    0.0007190    0.1114129    0.3804435    0.9180686
   0.0195440    0.0016213   -0.0014421    0.7551534    0.6283172    0.1869781
   0.0190990    0.0014844   -0.0004794    0.5413304    0.6054339    0.5834477
   0.0194410    0.0014665   -0.0008341    0.6609509    0.6168825    0.4273170
   0.0176780    0.0015607    0.0004136    0.2564925    0.4458082    0.8575935
   0.0182140    0.0013337    0.0003698    0.4056264    0.4989012    0.7658752
   0.0188480    0.0010648    0.0000371    0.5416215    0.4481524    0.7112001
   0.0138200    0.0016394    0.0007305    0.1253447    0.4338151    0.8922405
   0.0196710    0.0012989   -0.0025959    0.8016523    0.4842863   -0.3504574
   0.0197840    0.0008118   -0.0027920    0.8303335    0.2416560   -0.5021441
   0.0194710    0.0003502   -0.0033407    0.7785784    0.1149065   -0.6169378
   0.0189640   -0.0001331   -0.0039401    0.7339807    0.0314985   -0.6784396
   0.0182910   -0.0009034   -0.0045829    0.5350763   -0.1579104   -0.8299143
   0.0172200   -0.0012552   -0.0050364    0.2027523   -0.1622723   -0.9656911
   0.0176160   -0.0015951   -0.0048202    0.4166788   -0.2646887   -0.8696659
   0.0186580   -0.0010069   -0.0042780    0.7126591   -0.1266376   -0.6899855
   0.0169250   -0.0010619   -0.0051116    0.0651754   -0.0892793   -0.9938719
   0.0163930   -0.0009205   -0.0051012   -0.0606469   -0.0919374   -0.9939162
   0.0163590   -0.0012133   -0.0050538   -0.0889105   -0.1932489   -0.9771130
   0.0141740   -0.0012968   -0.0045934   -0.1427306   -0.5738100   -0.8064553
   0.0153670   -0.0012569   -0.0048241   -0.1959904   -0.4936775   -0.8472722
   0.0143020   -0.0017150   -0.0042192   -0.1335931   -0.7157489   -0.6854607
   0.0139210   -0.0019460   -0.0039000   -0.0969124   -0.7336956   -0.6725316
   0.0111200   -0.0001754    0.0012368    0.0509139   -0.2680668    0.9620540
   0.0116090    0.0005731    0.0013043    0.0551573    0.0394812    0.9976968
   0.0101030    0.0002527    0.0013516    0.0264122    0.0284380    0.9992466
   0.0125780   -0.0022993    0.0004897    0.1986716   -0.7014280    0.6844913
   0.0125770   -0.0018587    0.0009349    0.1578811   -0.4018653    0.9019855
   0.0118550   -0.0020337    0.0006769   -0.2986402   -0.3872185    0.8722820
   0.0115080   -0.0011683    0.0008726   -0.1005578   -0.3169272    0.9431041
   0.0141200   -0.0032874   -0.0019485    0.0283516   -0.9988930   -0.0375357
   0.0142900   -0.0031915   -0.0015652    0.0419721   -0.9543774    0.2956386
   0.0144930   -0.0029030   -0.0010037    0.0418776   -0.8566340    0.5142223
   0.0141280   -0.0026765   -0.0005851    0.1448229   -0.8193883    0.5546433
   0.0133370   -0.0023682    0.0001298    0.2156346   -0.7726354    0.5971066
   0.0153920   -0.0025251   -0.0034550   -0.1368863   -0.7437219   -0.6543239
   0.0156220   -0.0028164   -0.0031977   -0.2373597   -0.7641765   -0.5997455
   0.0148740   -0.0030432   -0.0027070   -0.0802263   -0.8696257   -0.4871498
   0.0142010   -0.0031522   -0.0024130   -0.0066823   -0.9319499   -0.3625254
   0.0129020    0.0013213    0.0010166    0.1205334    0.3389399    0.9330549
   0.0122710    0.0009802    0.0012018    0.0938167    0.2271119    0.9693393
   0.0196770    0.0015096   -0.0020698    0.8314176    0.5501741   -0.0778027
   0.0169340    0.0014030    0.0006060    0.1115168    0.3634739    0.9249058
   0.0161990    0.0013300    0.0006836    0.0363109    0.3484988    0.9366056
   0.0153350    0.0009708    0.0007922    0.0430640    0.2304574    0.9721290
   0.0143960    0.0009233    0.0008903    0.1193877    0.1795942    0.9764694
   0.0135400    0.0011382    0.0009794    0.1408808    0.2906629    0.9463972
   0.0198660    0.0011206   -0.0014498    0.8862189    0.4441797    0.1316070
   0.0197270    0.0011124   -0.0008769    0.7944454    0.4929426    0.3547732
   0.0194360    0.0010463   -0.0004008    0.6167629    0.4925294    0.6140182
   0.0180730    0.0010583    0.0005311    0.2186811    0.3347700    0.9165739
   0.0170170    0.0006369    0.0008282    0.0775391    0.1961258    0.9775082
   0.0183670    0.0009969    0.0004620    0.4481223    0.3289277    0.8312599
   0.0193830    0.0004136    0.0000101    0.5341005    0.3452406    0.7717160
   0.0187460    0.0003382    0.0004134    0.5055637    0.2430660    0.8278431
   0.0199130    0.0009875   -0.0024268    0.8905471    0.3765201   -0.2552617
   0.0199110    0.0010881   -0.0020390    0.8963922    0.4411704   -0.0430086
   0.0200150    0.0007209   -0.0023452    0.9465285    0.2096790   -0.2451909
   0.0200520    0.0004561   -0.0023795    0.9474451    0.1288146   -0.2928387
   0.0199460    0.0001820   -0.0026783    0.8894582    0.0259605   -0.4562787
   0.0194010   -0.0003049   -0.0034761    0.7803988   -0.0768129   -0.6205461
   0.0197520   -0.0004490   -0.0029059    0.8522968   -0.1663660   -0.4958956
   0.0191940   -0.0011120   -0.0034778    0.8265392   -0.2358506   -0.5110846
   0.0184260   -0.0016164   -0.0042780    0.5597183   -0.3043737   -0.7707607
   0.0168590   -0.0017833   -0.0049660   -0.0412969   -0.4138822   -0.9093933
   0.0173040   -0.0021657   -0.0047347    0.0517589   -0.6622062   -0.7475319
   0.0180020   -0.0023089   -0.0042146    0.4631083   -0.5521065   -0.6933319
   0.0188210   -0.0017612   -0.0038985    0.7506969   -0.2950171   -0.5911168
   0.0148560   -0.0015290   -0.0045116   -0.1676467   -0.6797781   -0.7140002
   0.0159550   -0.0018210   -0.0045770   -0.2647716   -0.6705969   -0.6929616
   0.0155490   -0.0020750   -0.0040645   -0.2594139   -0.7421271   -0.6180225
   0.0123620    0.0002880    0.0012366    0.1137857   -0.0850958    0.9898543
   0.0122960   -0.0005520    0.0010496    0.0764127   -0.1921365    0.9783888
   0.0132890   -0.0020663    0.0004673    0.2264026   -0.5845512    0.7791288
   0.0131170   -0.0018202    0.0006621    0.3425626   -0.4497469    0.8248507
   0.0122750   -0.0014963    0.0011181   -0.0284527    0.0293942    0.9991629
   0.0128230   -0.0015632    0.0009001    0.2048913   -0.0526317    0.9773686
   0.0127050   -0.0013757    0.0008516    0.1762968    0.1412036    0.9741566
   0.0121080   -0.0012559    0.0009574   -0.1464661    0.0216802    0.9889781
   0.0148270   -0.0032418   -0.0021824   -0.0303545   -0.9907769   -0.1320600
   0.0152970   -0.0032430   -0.0017951   -0.0463475   -0.9714303    0.2327552
   0.0152470   -0.0030412   -0.0012404   -0.0375199   -0.9063799    0.4207941
   0.0152940   -0.0027974   -0.0008122   -0.0698268   -0.8297594    0.5537360
   0.0146800   -0.0024469   -0.0003857    0.0387068   -0.7677056    0.6396326
   0.0143420   -0.0020191    0.0001730    0.1944812   -0.6857208    0.7014015
   0.0156100   -0.0031042   -0.0027843   -0.1953129   -0.9002156   -0.3891848
   0.0162360   -0.0032858   -0.0029511   -0.2264832   -0.9258974   -0.3023564
   0.0164020   -0.0027205   -0.0037750   -0.3407257   -0.7326813   -0.5891385
   0.0131040    0.0007294    0.0011285    0.1441095    0.0825842    0.9861097
   0.0154330    0.0002842    0.0008658    0.0317520    0.0443312    0.9985122
   0.0142450    0.0002062    0.0009438    0.0881733   -0.0784103    0.9930142
   0.0200520    0.0006105   -0.0014104    0.9440797    0.3044932    0.1264813
   0.0199220    0.0006435   -0.0008138    0.8915931    0.3325823    0.3073286
   0.0197180    0.0006812   -0.0004261    0.7299595    0.4027306    0.5522383
   0.0181880    0.0003709    0.0007174    0.2909925    0.2176086    0.9316490
   0.0180320   -0.0003740    0.0008621    0.1362289    0.0408407    0.9898352
   0.0172800   -0.0004100    0.0009163    0.0137910   -0.0191252    0.9997220
   0.0161880   -0.0000662    0.0008883   -0.0292556   -0.0139096    0.9994752
   0.0197920    0.0002459   -0.0002630    0.7774618    0.2785525    0.5638810
