NORM_ASCII
5988 12000
   0.0018249   -0.0421980    0.0085967    0.8313774    0.2339010    0.5040852
   0.0016109   -0.0420460    0.0087245    0.3030369    0.3153331    0.8992962
   0.0009066   -0.0399040    0.0080187   -0.7373965   -0.0334143    0.6746332
   0.0006536   -0.0383390    0.0078809   -0.7846985   -0.1665865    0.5970739
   0.0010238   -0.0421170    0.0081173   -0.8383381    0.0874467    0.5380914
   0.0014618   -0.0423350    0.0087358   -0.5255242    0.1614658    0.8353162
   0.0005680   -0.0373130    0.0081459   -0.6918313   -0.1935652    0.6956306
   0.0001185   -0.0361390    0.0079369   -0.8763882   -0.2379583    0.4187118
  -0.0000262   -0.0356490    0.0078908   -0.9401449   -0.2287773    0.2525640
   0.0000040   -0.0358090    0.0074849   -0.9739191   -0.1702162   -0.1500268
  -0.0003248   -0.0337430    0.0073742   -0.9346851   -0.2404118   -0.2618511
  -0.0003861   -0.0336540    0.0079124   -0.8875038   -0.3800389   -0.2605907
  -0.0005302   -0.0334750    0.0079093   -0.9157302   -0.3381422   -0.2170210
  -0.0006216   -0.0323450    0.0072629   -0.9100345   -0.1860502   -0.3704355
  -0.0007189   -0.0322400    0.0075144   -0.8721791   -0.2358558   -0.4285739
  -0.0012889   -0.0313810    0.0077668   -0.8408277   -0.2501244   -0.4800484
  -0.0014369   -0.0333080    0.0085053   -0.9819432   -0.1502879   -0.1148958
  -0.0010987   -0.0306000    0.0075079   -0.7527164   -0.0561174   -0.6559488
  -0.0005279   -0.0298140    0.0067958   -0.6807241   -0.0796274   -0.7281993
  -0.0002788   -0.0304530    0.0067272   -0.6744323   -0.0570327   -0.7361307
  -0.0009153   -0.0292880    0.0072224   -0.7677981    0.1006873   -0.6327307
   0.0029726   -0.0426580   -0.0017778    0.1967351   -0.0527475   -0.9790368
   0.0034778   -0.0431550   -0.0015177    0.4803448   -0.1267971   -0.8678660
  -0.0021709   -0.0356500   -0.0006167   -0.9912217   -0.0281060   -0.1291879
  -0.0020545   -0.0375640   -0.0013525   -0.9595722   -0.0444487   -0.2779306
  -0.0018398   -0.0374770   -0.0017092   -0.7627781   -0.0636078   -0.6435244
  -0.0021397   -0.0363430   -0.0007221   -0.9835994    0.0308215   -0.1777138
  -0.0022058   -0.0358010    0.0005672   -0.9984887    0.0130344    0.0533898
  -0.0019900   -0.0343490    0.0018007   -0.9589435    0.0104906    0.2834032
  -0.0018437   -0.0384610   -0.0015391   -0.8467987   -0.0945694   -0.5234392
  -0.0015268   -0.0403430   -0.0017278   -0.7765638   -0.1007516   -0.6219307
  -0.0016023   -0.0412150   -0.0014529   -0.8458386   -0.0685213   -0.5290197
  -0.0015220   -0.0434500   -0.0013740   -0.7847877   -0.0554965   -0.6172750
  -0.0012957   -0.0443140   -0.0014887   -0.5194953   -0.0744597   -0.8512229
  -0.0005583   -0.0444660   -0.0017323   -0.2819664   -0.1341707   -0.9499964
  -0.0006731   -0.0430670   -0.0019286   -0.3130995   -0.0762453   -0.9466548
  -0.0000402   -0.0438780   -0.0019295   -0.0764471   -0.1548920   -0.9849692
   0.0003506   -0.0453820   -0.0018314   -0.0504335   -0.0601401   -0.9969151
   0.0012276   -0.0441450   -0.0019008    0.1638937   -0.1044971   -0.9809277
   0.0019031   -0.0440850   -0.0017501    0.1855169   -0.2381796   -0.9533383
   0.0025616   -0.0446070   -0.0015180   -0.0444665   -0.2501363   -0.9671890
   0.0034338   -0.0452400   -0.0012924    0.3275113   -0.0623067   -0.9427907
   0.0034683   -0.0440290   -0.0013681    0.4516324   -0.1128960   -0.8850326
  -0.0014919   -0.0326540    0.0030925   -0.9543571    0.0292753    0.2972297
  -0.0013609   -0.0306020    0.0031611   -0.8834987   -0.0037750    0.4684184
  -0.0015426   -0.0304690    0.0027466   -0.9447027   -0.1609790    0.2856966
  -0.0015255   -0.0300950    0.0028564   -0.8899282   -0.0497786    0.4533760
  -0.0015472   -0.0299300    0.0030068   -0.9274069   -0.1388008    0.3473483
  -0.0012537   -0.0295790    0.0037637   -0.8668352   -0.0459883    0.4964694
  -0.0011640   -0.0289730    0.0038070   -0.7734039    0.0262043    0.6333717
  -0.0011569   -0.0283550    0.0038485   -0.7878913    0.0521635    0.6136011
  -0.0008976   -0.0278740    0.0040895   -0.8168889    0.0426565    0.5752156
  -0.0009573   -0.0273840    0.0039304   -0.8343748    0.0382705    0.5498673
  -0.0011619   -0.0268870    0.0036612   -0.9510641   -0.1497062    0.2703055
  -0.0009346   -0.0270540    0.0039486   -0.8518276   -0.1126330    0.5115698
  -0.0007377   -0.0267690    0.0043345   -0.7517566    0.0579558    0.6568890
   0.0001354   -0.0265670    0.0050082   -0.7779711    0.1351400    0.6135945
   0.0000770   -0.0262570    0.0054968   -0.8440121   -0.1402953   -0.5176493
   0.0002847   -0.0267610    0.0053145   -0.9453354    0.0571049    0.3210608
  -0.0003329   -0.0256430    0.0059367   -0.8051054   -0.0863022   -0.5868196
  -0.0001237   -0.0261930    0.0056789   -0.7745084   -0.0999890   -0.6246111
  -0.0003870   -0.0259930    0.0058776   -0.7758739   -0.1789370   -0.6049803
  -0.0003000   -0.0270260    0.0063180   -0.8481304   -0.2216806   -0.4811783
  -0.0004097   -0.0262460    0.0062337   -0.8883219   -0.0125671   -0.4590493
  -0.0001755   -0.0262140    0.0059748   -0.8593089   -0.1222997   -0.4966196
   0.0000315   -0.0287320    0.0062260   -0.7810420   -0.0866570   -0.6184367
   0.0001222   -0.0276660    0.0059061   -0.8652404   -0.2200603   -0.4504803
  -0.0001349   -0.0274210    0.0061425   -0.8628424   -0.2311642   -0.4495176
   0.0047516   -0.0480870    0.0027582    0.9921073    0.0018532    0.1253785
   0.0043583   -0.0479070    0.0044609    0.9417237    0.0067207    0.3363202
   0.0037072   -0.0440510   -0.0011912    0.6856283   -0.0709865   -0.7244824
   0.0037600   -0.0461960   -0.0010620    0.6746300    0.0157492   -0.7379880
   0.0040213   -0.0464040   -0.0007435    0.8775538    0.0565320   -0.4761339
   0.0039847   -0.0468620   -0.0009038    0.8599696    0.0195063   -0.5099723
   0.0040149   -0.0477180   -0.0008092    0.8592409   -0.0067979   -0.5115259
   0.0041147   -0.0477490   -0.0006000    0.9504219    0.1071913   -0.2919044
   0.0041407   -0.0482720   -0.0001915    0.9492955   -0.0752629   -0.3052436
   0.0045336   -0.0497360    0.0011357    0.9687685   -0.0328130   -0.2457862
   0.0047736   -0.0504470    0.0026753    0.9997630   -0.0015076   -0.0217158
   0.0047107   -0.0496060    0.0029620    0.9952696    0.0206616    0.0949292
   0.0042018   -0.0477470    0.0048422    0.8701241    0.0186347    0.4924803
   0.0038260   -0.0481450    0.0054143    0.7776339    0.0315267    0.6279265
   0.0030954   -0.0483000    0.0062030    0.7681350   -0.0354480    0.6393059
   0.0028606   -0.0478980    0.0066213    0.7861817   -0.0451049    0.6163472
   0.0025295   -0.0486590    0.0069590    0.6006371   -0.1065068    0.7923959
   0.0021603   -0.0475480    0.0070429    0.5527650   -0.0003587    0.8333371
   0.0019516   -0.0460460    0.0073357    0.7148833   -0.0227249    0.6988744
   0.0017065   -0.0471160    0.0074579    0.8634862   -0.0630893    0.5004111
   0.0019482   -0.0446480    0.0077718    0.9462161   -0.1763202    0.2712680
   0.0017504   -0.0458830    0.0076964    0.9281693   -0.0605064    0.3672066
   0.0018063   -0.0449450    0.0081606    0.8658467   -0.1993801    0.4588649
   0.0016873   -0.0455570    0.0080025    0.9830597   -0.0669948    0.1706029
   0.0018633   -0.0443910    0.0084501    0.7081211   -0.3834892    0.5928749
   0.0019295   -0.0439550    0.0086762    0.7380355   -0.3250933    0.5912850
   0.0019081   -0.0436970    0.0089258    0.3917674   -0.1572711    0.9065231
   0.0018693   -0.0431720    0.0088706    0.1625693   -0.0468964    0.9855820
   0.0012023   -0.0435440    0.0086033   -0.3571419   -0.1557234    0.9209777
   0.0008901   -0.0418200    0.0078741   -0.9552181   -0.1113799    0.2741404
   0.0004919   -0.0382350    0.0076346   -0.9269505   -0.1283780    0.3525362
   0.0001591   -0.0370260    0.0074241   -0.9793697   -0.1946649   -0.0542269
   0.0007508   -0.0432300    0.0081641   -0.9564453    0.1222228    0.2650925
   0.0009358   -0.0423590    0.0077876   -0.9968586    0.0720372   -0.0329180
   0.0009870   -0.0433180    0.0085367   -0.6361532   -0.0527285    0.7697589
   0.0004216   -0.0363450    0.0065753   -0.9152312   -0.1059826   -0.3887410
   0.0000524   -0.0349590    0.0070198   -0.8712023   -0.1126544   -0.4778238
  -0.0000166   -0.0342940    0.0069323   -0.8106386   -0.1515865   -0.5655851
  -0.0002325   -0.0335360    0.0070466   -0.8300377   -0.1562576   -0.5353699
   0.0004414   -0.0331860    0.0061623   -0.8573751   -0.2435834   -0.4534039
  -0.0004817   -0.0320420    0.0069135   -0.7853205   -0.1149054   -0.6083325
  -0.0007523   -0.0312910    0.0071649   -0.7528249   -0.0778294   -0.6536033
   0.0002664   -0.0299590    0.0062069   -0.7634889   -0.1023261   -0.6376630
  -0.0002274   -0.0311990    0.0066303   -0.6219823   -0.0292812   -0.7824836
   0.0002769   -0.0308420    0.0062742   -0.7455265   -0.0796712   -0.6616969
  -0.0020867   -0.0382350   -0.0009088   -0.9715480   -0.0178947   -0.2361658
  -0.0020613   -0.0378190   -0.0005246   -0.9911526    0.0050921   -0.1326296
  -0.0022152   -0.0370920   -0.0005480   -0.9945045   -0.0511288   -0.0913600
  -0.0022205   -0.0368990    0.0007135   -0.9964823   -0.0057915    0.0836026
  -0.0020258   -0.0364500    0.0017794   -0.9774238    0.0086224    0.2111122
  -0.0014849   -0.0355460    0.0033826   -0.9091066    0.0300919    0.4154751
  -0.0014992   -0.0363600    0.0033134   -0.9146265    0.0223540    0.4036815
  -0.0014963   -0.0342030    0.0031331   -0.9066590    0.0347456    0.4204310
  -0.0016256   -0.0377940    0.0031859   -0.9393742    0.0158406    0.3425277
  -0.0018570   -0.0397590   -0.0013211   -0.9306786   -0.1047430   -0.3505229
  -0.0018707   -0.0407360   -0.0008816   -0.9335905   -0.0647155   -0.3524494
  -0.0016923   -0.0429450   -0.0010780   -0.8773535   -0.0258761   -0.4791463
  -0.0017289   -0.0436520   -0.0010097   -0.9229671   -0.0379286   -0.3830053
  -0.0016857   -0.0449660   -0.0008708   -0.9121932    0.0407820   -0.4077258
  -0.0014685   -0.0454190   -0.0012645   -0.7210619   -0.0337719   -0.6920471
  -0.0012291   -0.0457220   -0.0014298   -0.4025464   -0.0729318   -0.9124896
  -0.0000423   -0.0466350   -0.0017113   -0.1699415   -0.0352456   -0.9848237
   0.0010977   -0.0470670   -0.0017467    0.0962297   -0.0212732   -0.9951318
   0.0011999   -0.0460830   -0.0017589    0.2343409    0.0872921   -0.9682275
   0.0011227   -0.0454050   -0.0017341    0.1417936   -0.1381351   -0.9802108
   0.0014909   -0.0447260   -0.0017340    0.3847115   -0.1236997   -0.9147106
   0.0021619   -0.0445650   -0.0014452    0.1312872   -0.3972619   -0.9082657
   0.0022181   -0.0450420   -0.0013264    0.0823846   -0.0920342   -0.9923419
   0.0025351   -0.0454040   -0.0014003   -0.1487790   -0.1088560   -0.9828607
   0.0027473   -0.0457520   -0.0013916    0.0319240    0.1227252   -0.9919271
   0.0034628   -0.0460270   -0.0012572    0.3637162    0.0067543   -0.9314853
  -0.0013249   -0.0329210    0.0034094   -0.8601073   -0.1660265    0.4823388
  -0.0014812   -0.0326040    0.0034377   -0.8791485    0.0801849    0.4697535
  -0.0013652   -0.0324130    0.0033783   -0.8775738    0.2055162    0.4331597
  -0.0015074   -0.0304240    0.0030381   -0.8592296   -0.0282732    0.5108083
  -0.0009553   -0.0310040    0.0040801   -0.9446369    0.0040927    0.3280920
  -0.0009311   -0.0303570    0.0040598   -0.8810087   -0.0026111    0.4730929
  -0.0007780   -0.0297600    0.0042721   -0.8386187    0.0076352    0.5446654
  -0.0003341   -0.0283860    0.0046336   -0.7761356    0.0512666    0.6284785
  -0.0004359   -0.0274590    0.0046761   -0.7886460   -0.1440710    0.5977299
  -0.0004365   -0.0268980    0.0046543   -0.7253979    0.0005215    0.6883296
  -0.0000964   -0.0266930    0.0049003   -0.6965470    0.3038723    0.6499876
   0.0002121   -0.0269220    0.0056223   -0.8056255   -0.0673009   -0.5885899
  -0.0000768   -0.0264310    0.0057061   -0.7125133   -0.0854589   -0.6964349
  -0.0000489   -0.0273360    0.0052365   -0.7661358    0.1348146    0.6283796
   0.0002453   -0.0270350    0.0053238   -0.9102330    0.2180248    0.3520527
  -0.0000311   -0.0270370    0.0057699   -0.7640176   -0.1318937   -0.6315704
  -0.0002469   -0.0268660    0.0059273   -0.7938922   -0.2276611   -0.5638311
  -0.0003328   -0.0264310    0.0058915   -0.7673967    0.2445876   -0.5926881
   0.0003810   -0.0291500    0.0057928   -0.9835257   -0.1328393   -0.1226007
   0.0002150   -0.0284090    0.0057466   -0.9927402   -0.0978323   -0.0699694
   0.0001768   -0.0276240    0.0056113   -0.9701045   -0.0478523    0.2379232
   0.0002249   -0.0273040    0.0055779   -0.9855044    0.0850779   -0.1467749
  -0.0000115   -0.0273990    0.0057820   -0.7512350   -0.3249964   -0.5744765
   0.0044802   -0.0492070    0.0041669    0.9536526    0.0217467    0.3001230
   0.0039110   -0.0487050    0.0053941    0.8235719    0.0124220    0.5670758
   0.0036675   -0.0470530   -0.0011439    0.4903265   -0.0377918   -0.8707191
   0.0037549   -0.0485010   -0.0009585    0.6789339   -0.0228017   -0.7338452
   0.0039861   -0.0487320   -0.0005874    0.9306142   -0.0205215   -0.3654260
   0.0041033   -0.0497910   -0.0002612    0.9531812   -0.0230529   -0.3015196
   0.0040234   -0.0517770   -0.0003991    0.9370298   -0.0542093   -0.3450166
   0.0042342   -0.0515820    0.0004400    0.9640069   -0.0866580   -0.2513583
   0.0045178   -0.0516360    0.0014319    0.9613505   -0.0542671   -0.2699266
   0.0046588   -0.0523770    0.0022482    0.9910642   -0.0301591   -0.1299311
   0.0046265   -0.0515740    0.0037932    0.9632881    0.0010233    0.2684678
   0.0046830   -0.0530730    0.0032682    0.9944126   -0.0119857    0.1048806
   0.0030214   -0.0493140    0.0062327    0.7195901   -0.0502339    0.6925797
   0.0025560   -0.0496590    0.0065717    0.5321202   -0.0984225    0.8409287
   0.0019699   -0.0501610    0.0067937    0.6790694   -0.1364810    0.7212750
   0.0022232   -0.0486100    0.0071510    0.5987197   -0.0375186    0.8000794
   0.0017264   -0.0483810    0.0074895    0.8687207    0.1272215    0.4786847
   0.0016601   -0.0463520    0.0078625    0.9952707   -0.0347435    0.0907142
   0.0015724   -0.0477790    0.0078764    0.9925413   -0.0654122    0.1028740
   0.0016504   -0.0471110    0.0079166    0.9978037   -0.0640939    0.0167229
   0.0015109   -0.0448250    0.0083900    0.0729554   -0.0607315    0.9954844
   0.0015932   -0.0451470    0.0084382    0.6238247    0.3912140    0.6766050
   0.0016893   -0.0454980    0.0085536    0.6280982    0.1944844    0.7534378
   0.0016828   -0.0461790    0.0085507    0.9694927   -0.0037360    0.2450916
   0.0015033   -0.0444460    0.0084304   -0.1666892   -0.3207347    0.9323861
   0.0018044   -0.0442150    0.0086592    0.0566943   -0.4207298    0.9054127
   0.0013473   -0.0438980    0.0085466   -0.3575505   -0.3063113    0.8822307
   0.0007737   -0.0414990    0.0074930   -0.9835313   -0.1788075    0.0263465
   0.0009717   -0.0421840    0.0072150   -0.9879595   -0.1527441    0.0246035
   0.0004519   -0.0385050    0.0073638   -0.9944347   -0.0940170    0.0475443
   0.0003496   -0.0376320    0.0072754   -0.9761245   -0.1472867   -0.1596485
   0.0006394   -0.0368990    0.0064055   -0.9783931   -0.0888254   -0.1867004
   0.0007591   -0.0443810    0.0079788   -0.9809508   -0.0017023    0.1942489
   0.0007367   -0.0432250    0.0079090   -0.9772584    0.0744700   -0.1985451
   0.0009084   -0.0430600    0.0075266   -0.9028523   -0.0569700   -0.4261597
   0.0010212   -0.0428760    0.0070845   -0.9802338   -0.1393567    0.1404332
   0.0010486   -0.0445570    0.0083118   -0.4447870   -0.0924785    0.8908492
   0.0005416   -0.0359890    0.0061447   -0.9980244    0.0050858    0.0626209
   0.0005670   -0.0354570    0.0062533   -0.8909703    0.1155637   -0.4391093
   0.0002411   -0.0348530    0.0067353   -0.7595909   -0.0065162   -0.6503686
   0.0007422   -0.0349680    0.0062424   -0.9986270   -0.0174165   -0.0494051
   0.0004868   -0.0337520    0.0061885   -0.9837153   -0.1459614   -0.1048787
   0.0004234   -0.0329760    0.0060080   -0.9524386   -0.2065126    0.2240832
   0.0003054   -0.0329570    0.0062012   -0.8836743   -0.2471688   -0.3975265
   0.0001828   -0.0321350    0.0062776   -0.8352611    0.0747673   -0.5447465
   0.0004016   -0.0313650    0.0062606   -0.7881882    0.0473076   -0.6136133
   0.0003919   -0.0305050    0.0060357   -0.9306284   -0.0801042   -0.3570911
   0.0004896   -0.0313050    0.0060547   -0.9722363    0.0055513   -0.2339354
  -0.0022343   -0.0385230   -0.0003930   -0.9897277    0.0497293   -0.1340374
  -0.0021479   -0.0396790   -0.0003212   -0.9849545   -0.0980201   -0.1423259
  -0.0022017   -0.0376380    0.0000962   -0.9967428   -0.0113689   -0.0798413
  -0.0021916   -0.0383520    0.0006450   -0.9985110   -0.0147726    0.0525127
  -0.0020090   -0.0381800    0.0017719   -0.9769506    0.0066331    0.2133626
  -0.0007650   -0.0335720    0.0044559   -0.8555374    0.0356977    0.5165090
  -0.0009550   -0.0356030    0.0043333   -0.8504844    0.0294960    0.5251725
  -0.0010968   -0.0378090    0.0043176   -0.8490741    0.0442206    0.5264197
  -0.0016666   -0.0395130    0.0029993   -0.9521189    0.0126376    0.3054667
  -0.0012036   -0.0390520    0.0042043   -0.8965498    0.0221645    0.4423881
  -0.0020041   -0.0406220   -0.0002909   -0.9838951   -0.0830964   -0.1582574
  -0.0020603   -0.0420790    0.0002839   -0.9935561   -0.0248906   -0.1105746
  -0.0019462   -0.0445810    0.0000912   -0.9896083    0.0126492   -0.1432317
  -0.0017062   -0.0457440   -0.0010076   -0.8419505   -0.0192734   -0.5392105
  -0.0018720   -0.0454950   -0.0006438   -0.9602656    0.1482534   -0.2364548
  -0.0018343   -0.0449320   -0.0003421   -0.9576799    0.0210844   -0.2870623
  -0.0013957   -0.0475080   -0.0011162   -0.6316015   -0.0833191   -0.7708031
  -0.0007954   -0.0473570   -0.0014457   -0.3719148   -0.0761475   -0.9251383
   0.0007809   -0.0484960   -0.0017533   -0.0145943   -0.0503290   -0.9986261
   0.0000797   -0.0482930   -0.0016829   -0.2470075   -0.0717381   -0.9663545
   0.0016324   -0.0479650   -0.0016788    0.1927072   -0.0316499   -0.9807457
   0.0025149   -0.0464280   -0.0015274    0.2274694    0.0638449   -0.9716900
   0.0031124   -0.0477200   -0.0013032    0.3164896   -0.0229392   -0.9483186
   0.0018149   -0.0454680   -0.0015841    0.5213506   -0.1205861   -0.8447796
   0.0020792   -0.0457430   -0.0013347    0.2900643    0.1356801   -0.9473403
   0.0019957   -0.0461480   -0.0015609    0.1475490    0.3662387   -0.9187483
   0.0017842   -0.0452740   -0.0017493    0.6027921   -0.0542705   -0.7960505
   0.0018178   -0.0449260   -0.0014130    0.6227329    0.0077919   -0.7823957
   0.0022397   -0.0455130   -0.0012853   -0.0855164   -0.0263723   -0.9959877
  -0.0012344   -0.0325840    0.0036139   -0.8039743    0.0303358    0.5938898
  -0.0006373   -0.0318180    0.0045966   -0.9373102   -0.1137685    0.3294031
  -0.0008271   -0.0312950    0.0043152   -0.8817279   -0.2784260    0.3808343
  -0.0009409   -0.0310990    0.0043532   -0.9227846   -0.1532173    0.3535435
  -0.0006888   -0.0308810    0.0046730   -0.7828087    0.0352725    0.6212619
  -0.0005391   -0.0301530    0.0047412   -0.8401765   -0.1192364    0.5290427
  -0.0005680   -0.0299280    0.0048630   -0.8203567    0.0013813    0.5718505
  -0.0003192   -0.0295500    0.0049565   -0.6201232    0.1959145    0.7596477
  -0.0001323   -0.0287000    0.0050338   -0.7402301    0.0508720    0.6704264
   0.0000343   -0.0276740    0.0051928   -0.8624298   -0.3479900    0.3675838
   0.0001478   -0.0284990    0.0054148   -0.9071374   -0.0477873    0.4181126
  -0.0002209   -0.0275920    0.0050493   -0.7959318   -0.2659354    0.5438483
   0.0000133   -0.0276280    0.0054198   -0.8982973   -0.1751599    0.4029652
   0.0004162   -0.0302920    0.0057684   -0.9897628   -0.0395734    0.1371263
   0.0003342   -0.0295350    0.0054442   -0.8375474   -0.0433200    0.5446445
   0.0001393   -0.0278390    0.0054115   -0.9298074   -0.2065838    0.3046004
   0.0041710   -0.0507620    0.0049974    0.8823900    0.0007862    0.4705182
   0.0043055   -0.0494820    0.0046469    0.8914778    0.0152414    0.4528080
   0.0037109   -0.0495170    0.0055791    0.7625205    0.0088096    0.6469041
   0.0037162   -0.0494880   -0.0010448    0.5489684   -0.0238887   -0.8355017
   0.0039984   -0.0495210   -0.0007181    0.8823780   -0.0066935   -0.4704937
   0.0038353   -0.0502740   -0.0008477    0.7996313   -0.0748218   -0.5958116
   0.0037698   -0.0524300   -0.0007117    0.7014734   -0.0702954   -0.7092204
   0.0040302   -0.0525370   -0.0002479    0.9538347   -0.0389777   -0.2977921
   0.0042470   -0.0525740    0.0009320    0.9576303   -0.0664604   -0.2802271
   0.0045778   -0.0541620    0.0018560    0.9666074   -0.0156259   -0.2557851
   0.0043766   -0.0525900    0.0044579    0.9408036    0.0202227    0.3383484
   0.0041080   -0.0523260    0.0050146    0.8581324   -0.0090429    0.5133489
   0.0044477   -0.0536100    0.0043191    0.9421942    0.0147281    0.3347435
   0.0046230   -0.0554920    0.0035374    0.9938170   -0.0238750    0.1084331
   0.0043506   -0.0546600    0.0047310    0.8996910    0.0092776    0.4364287
   0.0046838   -0.0552410    0.0026580    0.9967263   -0.0431570   -0.0683683
   0.0031226   -0.0506580    0.0061986    0.5879695    0.0565839    0.8069016
   0.0020261   -0.0507410    0.0068227    0.6073694    0.1363298    0.7826344
   0.0017920   -0.0504130    0.0070618    0.8821809    0.1249178    0.4540401
   0.0017314   -0.0499950    0.0072600    0.9656541   -0.0745060    0.2489196
   0.0018151   -0.0488590    0.0074954    0.9151876   -0.0271355    0.4021135
   0.0015461   -0.0481950    0.0082565    0.9723200    0.0854688    0.2174600
   0.0016746   -0.0487420    0.0083292    0.9503909    0.0733991    0.3022742
   0.0017000   -0.0472230    0.0085549    0.9858038   -0.0519739    0.1596548
   0.0015547   -0.0477500    0.0088764    0.7189333   -0.0100347    0.6950066
   0.0011291   -0.0451060    0.0083169   -0.3047800    0.2548592    0.9176905
   0.0014230   -0.0451390    0.0085231   -0.1930950    0.3651688    0.9106954
   0.0015578   -0.0462980    0.0087129    0.0886332    0.1572234    0.9835776
   0.0014102   -0.0457420    0.0085196   -0.3935851    0.0975817    0.9140944
   0.0006934   -0.0407890    0.0070590   -0.9911843   -0.1196860    0.0568240
   0.0009369   -0.0423920    0.0069281   -0.9313439   -0.0774641    0.3558059
   0.0006502   -0.0400220    0.0065872   -0.9890665   -0.0429203    0.1410863
   0.0005398   -0.0387240    0.0069114   -0.9963631   -0.0354209   -0.0774977
   0.0005850   -0.0370490    0.0061701   -0.8697402    0.0652496    0.4891774
   0.0006019   -0.0377730    0.0063967   -0.9896485    0.0624724    0.1292016
   0.0007615   -0.0452270    0.0080575   -0.8880014   -0.0519546    0.4568964
   0.0007129   -0.0449320    0.0077396   -0.9869181    0.0158827   -0.1604382
   0.0007984   -0.0443850    0.0076505   -0.9683970    0.1216416   -0.2177396
   0.0008579   -0.0436350    0.0076119   -0.9302378    0.0399471   -0.3647765
   0.0011406   -0.0431870    0.0072749   -0.9852495   -0.0838118   -0.1491942
   0.0009671   -0.0434100    0.0067611   -0.7971426   -0.0251337    0.6032678
   0.0007407   -0.0427650    0.0066445   -0.7662052   -0.0105771    0.6425089
   0.0009996   -0.0457250    0.0082453   -0.6761335    0.0605947    0.7342832
   0.0003799   -0.0358250    0.0058562   -0.7364103    0.0551450    0.6742840
   0.0006052   -0.0354450    0.0061319   -0.9597312    0.1723226    0.2218579
   0.0004093   -0.0350940    0.0057219   -0.7262598   -0.1355345    0.6739266
   0.0002662   -0.0348460    0.0058002   -0.6622845   -0.1479829    0.7344932
   0.0006318   -0.0346370    0.0060481   -0.7599384   -0.0739473    0.6457750
   0.0003772   -0.0340400    0.0059545   -0.7891927   -0.0212641    0.6137774
  -0.0002727   -0.0332750    0.0052306   -0.7720668   -0.0545459    0.6331963
   0.0002892   -0.0326980    0.0059760   -0.9327129   -0.0907471    0.3490151
   0.0002567   -0.0336660    0.0057015   -0.7750687    0.0037423    0.6318659
   0.0002859   -0.0320860    0.0059959   -0.9885538    0.1504377   -0.0113973
   0.0004550   -0.0313630    0.0056967   -0.9062242    0.1420276    0.3982285
  -0.0020867   -0.0406060    0.0012509   -0.9986832   -0.0335889    0.0387777
  -0.0021834   -0.0387040    0.0009438   -0.9935787    0.0043929    0.1130577
  -0.0020451   -0.0401890    0.0016252   -0.9788114    0.0014580    0.2047589
  -0.0001749   -0.0325930    0.0053002   -0.8160286    0.0514020    0.5757214
  -0.0002626   -0.0349810    0.0053054   -0.7032607   -0.0074741    0.7108927
  -0.0002525   -0.0341590    0.0052040   -0.7604157    0.0436810    0.6479660
  -0.0001462   -0.0361730    0.0054799   -0.7255494    0.0253489    0.6877030
  -0.0004866   -0.0390180    0.0052992   -0.7737286    0.0700316    0.6296345
  -0.0001191   -0.0374650    0.0055199   -0.7045744    0.0936433    0.7034244
  -0.0014344   -0.0403820    0.0037203   -0.9261400    0.0286362    0.3760913
  -0.0017289   -0.0411400    0.0029745   -0.9525144    0.0195025    0.3038683
  -0.0010549   -0.0405160    0.0045532   -0.8540487    0.0264843    0.5195184
  -0.0020251   -0.0446680    0.0017067   -0.9984590   -0.0200374    0.0517504
  -0.0020648   -0.0430990    0.0016286   -0.9946264   -0.0043510    0.1034379
  -0.0020032   -0.0448290   -0.0000512   -0.9878391   -0.1059130   -0.1138262
  -0.0019076   -0.0449890    0.0000752   -0.9696814   -0.2437013   -0.0181035
  -0.0019266   -0.0453080    0.0003283   -0.9916530    0.0648318   -0.1114504
  -0.0019852   -0.0462810    0.0011680   -0.9968115   -0.0188719   -0.0775287
  -0.0019172   -0.0459580   -0.0005850   -0.9858241   -0.0254887   -0.1658350
  -0.0018732   -0.0469280   -0.0003745   -0.9826846   -0.0795609   -0.1673350
  -0.0016482   -0.0475550   -0.0007935   -0.9053354   -0.0785430   -0.4173713
  -0.0019018   -0.0456730    0.0001611   -0.9920556   -0.0900257   -0.0878693
  -0.0019639   -0.0454240   -0.0000085   -0.9929137    0.1088781   -0.0476225
  -0.0014365   -0.0487530   -0.0009545   -0.7531528   -0.0729436   -0.6537891
  -0.0010889   -0.0493150   -0.0011354   -0.4893315   -0.0804857   -0.8683759
   0.0004618   -0.0498390   -0.0015880   -0.1277113   -0.0816921   -0.9884413
   0.0011527   -0.0501470   -0.0015916    0.0548208   -0.0752318   -0.9956580
  -0.0003365   -0.0500820   -0.0013858   -0.3025483   -0.0683055   -0.9506834
   0.0017270   -0.0509200   -0.0014630    0.1612474   -0.0686368   -0.9845244
   0.0034917   -0.0505210   -0.0010932    0.4349998   -0.0660126   -0.8980075
  -0.0003925   -0.0320040    0.0050429   -0.7100061   -0.0322484    0.7034567
  -0.0006001   -0.0312360    0.0047713   -0.7680587    0.1068201    0.6314074
  -0.0005953   -0.0318120    0.0049511   -0.8426501   -0.2524634    0.4756080
  -0.0006006   -0.0314000    0.0049090   -0.6904801    0.2136412    0.6910823
  -0.0002423   -0.0304120    0.0050317   -0.6088595   -0.1169047    0.7846167
   0.0002202   -0.0306100    0.0053361   -0.6922602   -0.0001753    0.7216480
  -0.0003514   -0.0299960    0.0050938   -0.6272712   -0.0771211    0.7749730
   0.0001009   -0.0300240    0.0052808   -0.5130278    0.0149294    0.8582421
   0.0034627   -0.0516830    0.0059341    0.7222302   -0.0044387    0.6916385
   0.0034400   -0.0517290   -0.0010220    0.3463205   -0.1010549   -0.9326575
   0.0032024   -0.0523370   -0.0010088    0.3441870   -0.0782046   -0.9356385
   0.0037230   -0.0532730   -0.0007162    0.5936022   -0.0556828   -0.8028299
   0.0039473   -0.0539380   -0.0003838    0.8719476   -0.0438604   -0.4876307
   0.0040118   -0.0548430   -0.0000481    0.9693868   -0.0647937   -0.2368354
   0.0041583   -0.0539420    0.0008766    0.9658143   -0.0016048   -0.2592298
   0.0041489   -0.0547030    0.0006951    0.9585754   -0.0422708   -0.2816849
   0.0044980   -0.0559020    0.0018914    0.9655462   -0.0633750   -0.2523968
   0.0042418   -0.0532500    0.0048494    0.8659338   -0.0138133    0.4999678
   0.0030933   -0.0529940    0.0062008    0.7678987    0.0007343    0.6405709
   0.0042030   -0.0538160    0.0048366    0.8305794    0.0096864    0.5568160
   0.0045075   -0.0567100    0.0041554    0.9612530   -0.0132693    0.2753480
   0.0045625   -0.0576530    0.0034877    0.9980413   -0.0184295    0.0597822
   0.0045790   -0.0564690    0.0027242    0.9947408   -0.0571139   -0.0850222
   0.0042956   -0.0564960    0.0046510    0.8564082    0.0086353    0.5162271
   0.0035862   -0.0552320    0.0056327    0.8302601   -0.0203880    0.5570032
   0.0036238   -0.0540870    0.0055833    0.8260586    0.0692647    0.5593117
   0.0021738   -0.0512500    0.0068721    0.7323460    0.2090188    0.6480590
   0.0022489   -0.0520000    0.0069228    0.7581783    0.1519621    0.6340924
   0.0017136   -0.0511700    0.0076200    0.9214254    0.0926955    0.3773364
   0.0017904   -0.0491450    0.0077441    0.9864985   -0.0700997    0.1480089
   0.0016312   -0.0497420    0.0081170    0.9728127   -0.0249027    0.2302505
   0.0014114   -0.0487090    0.0086841    0.4384233   -0.1789149    0.8807806
   0.0015612   -0.0495320    0.0083079    0.9679932   -0.0689551    0.2413181
   0.0015089   -0.0499760    0.0086261    0.4558139   -0.1596129    0.8756469
   0.0015589   -0.0489470    0.0086094    0.4050680   -0.0233483    0.9139884
   0.0014522   -0.0467640    0.0087294   -0.2900537    0.1571762    0.9440151
   0.0010844   -0.0478510    0.0089201   -0.4891698    0.1253953    0.8631274
   0.0013056   -0.0481290    0.0090140   -0.2896479   -0.2654298    0.9195929
   0.0012577   -0.0463800    0.0086143   -0.5521009    0.1662436    0.8170359
   0.0006320   -0.0408760    0.0066510   -0.9299450   -0.0322579    0.3662809
   0.0006662   -0.0420010    0.0064479   -0.7497359    0.0411151    0.6604587
   0.0005320   -0.0400460    0.0062893   -0.8647441    0.0258934    0.5015447
   0.0004754   -0.0390920    0.0063130   -0.9247186   -0.0052044    0.3806159
   0.0002421   -0.0388020    0.0059474   -0.7254850    0.0485570    0.6865230
   0.0004549   -0.0369200    0.0059156   -0.7654724    0.1165596    0.6328237
   0.0007966   -0.0459410    0.0077884   -0.9963501   -0.0851612    0.0058283
   0.0009644   -0.0448240    0.0071110   -0.9861578   -0.0038799   -0.1657643
   0.0009888   -0.0443320    0.0070777   -0.9819550    0.0461247   -0.1834037
   0.0009404   -0.0441370    0.0071230   -0.8636481    0.1758041   -0.4724457
   0.0010746   -0.0439080    0.0070851   -0.9881563    0.1405894   -0.0614954
   0.0010524   -0.0436070    0.0069863   -0.9968850    0.0633884    0.0469268
   0.0005337   -0.0440540    0.0065567   -0.5864458   -0.0305609    0.8094118
   0.0001660   -0.0427890    0.0062101   -0.6198642    0.0653026    0.7819872
   0.0008409   -0.0442790    0.0067008   -0.7172464    0.0256689    0.6963467
   0.0008985   -0.0470390    0.0082775   -0.9204634    0.1094699    0.3751845
   0.0008158   -0.0461600    0.0079735   -0.9960767    0.0213770    0.0858736
   0.0000730   -0.0320910    0.0055097   -0.7951175    0.1828990    0.5782180
  -0.0001039   -0.0315250    0.0051011   -0.5560001    0.2348200    0.7973227
  -0.0019488   -0.0422720    0.0021584   -0.9757171    0.0102268    0.2187958
  -0.0004655   -0.0398220    0.0054716   -0.7129296    0.0433493    0.6998944
  -0.0011596   -0.0417440    0.0044914   -0.8795890    0.0294900    0.4748194
  -0.0014745   -0.0430570    0.0038035   -0.9272753    0.0236988    0.3736294
  -0.0003744   -0.0417350    0.0055241   -0.7472321    0.0507117    0.6626255
  -0.0004507   -0.0408150    0.0054109   -0.7650185   -0.0169174    0.6437861
  -0.0019139   -0.0459410    0.0024665   -0.9841504   -0.0079624    0.1771569
  -0.0019075   -0.0453210    0.0026467   -0.9746627   -0.0132579    0.2232866
  -0.0018896   -0.0439740    0.0025641   -0.9714255    0.0173451    0.2367100
  -0.0019486   -0.0460290    0.0003653   -0.9801648   -0.0633052   -0.1878015
  -0.0018401   -0.0475910    0.0002230   -0.9914655   -0.0296172   -0.1269607
  -0.0018484   -0.0471610    0.0002421   -0.9961015    0.0025594   -0.0881775
  -0.0018138   -0.0467020    0.0002623   -0.9952267   -0.0420188   -0.0880810
  -0.0019585   -0.0492010    0.0017841   -0.9992264    0.0107300   -0.0378343
  -0.0020193   -0.0470400    0.0020189   -0.9954756    0.0067461    0.0947776
  -0.0017798   -0.0477310   -0.0001786   -0.9885414   -0.0573629   -0.1396261
  -0.0016131   -0.0495230   -0.0005472   -0.9468686   -0.0096519   -0.3214757
  -0.0018111   -0.0485420    0.0000022   -0.9835210   -0.0480132   -0.1743019
  -0.0015308   -0.0504740   -0.0006556   -0.8105849   -0.0700367   -0.5814181
  -0.0011086   -0.0517870   -0.0009255   -0.5831739   -0.0720878   -0.8091425
   0.0006455   -0.0508830   -0.0015611   -0.0600719   -0.0646901   -0.9960957
  -0.0000903   -0.0509740   -0.0014046   -0.2265427   -0.0617597   -0.9720412
  -0.0003315   -0.0533500   -0.0011728   -0.3343024   -0.0809505   -0.9389829
   0.0016776   -0.0521570   -0.0014008    0.1554533   -0.0692323   -0.9854142
   0.0025522   -0.0526810    0.0067591    0.8627693    0.2321822    0.4491332
   0.0015710   -0.0543680   -0.0012769    0.1632113   -0.0742984   -0.9837895
   0.0032971   -0.0533920   -0.0009301    0.3474387   -0.0564622   -0.9360013
   0.0032531   -0.0550700   -0.0008144    0.3483022   -0.0893223   -0.9331169
   0.0035325   -0.0560680   -0.0005644    0.5432940   -0.0976066   -0.8338492
   0.0038393   -0.0548970   -0.0004286    0.8002445   -0.0768350   -0.5947312
   0.0038202   -0.0564250   -0.0002526    0.9021223   -0.1167143   -0.4153951
   0.0040266   -0.0552050    0.0005039    0.9650664   -0.0865474   -0.2472982
   0.0042341   -0.0570320    0.0012079    0.9505000   -0.0307995   -0.3091942
   0.0044403   -0.0569890    0.0019963    0.9778239   -0.0484122   -0.2037566
   0.0030701   -0.0534570    0.0063048    0.7789381    0.1149636    0.6164729
   0.0043772   -0.0577090    0.0045177    0.9533266   -0.0386347    0.2994591
   0.0042764   -0.0572680    0.0047895    0.8426972   -0.0124993    0.5382427
   0.0044964   -0.0583690    0.0040088    0.9708221   -0.0562072    0.2331205
   0.0045673   -0.0585870    0.0033968    0.9696683   -0.2385385   -0.0533179
   0.0044463   -0.0583830    0.0021950    0.9842190   -0.0706015   -0.1622602
   0.0033620   -0.0564500    0.0059758    0.7723776   -0.0388631    0.6339736
   0.0033154   -0.0554440    0.0060574    0.7856828   -0.0511147    0.6165142
   0.0033063   -0.0541760    0.0062472    0.7792444    0.0363457    0.6256654
   0.0020937   -0.0521670    0.0074056    0.8422673    0.3746687    0.3875682
   0.0020911   -0.0525610    0.0076723    0.7043019    0.2748926    0.6545173
   0.0015999   -0.0520640    0.0080821    0.5556450    0.1415942    0.8192739
   0.0015171   -0.0515350    0.0080647    0.7624108    0.0120234    0.6469816
   0.0016501   -0.0504570    0.0082774    0.9108075   -0.1397595    0.3884547
   0.0015329   -0.0509250    0.0081611    0.5660607   -0.2492522    0.7857790
   0.0012202   -0.0491210    0.0084881   -0.4262576   -0.1578915    0.8907158
   0.0010414   -0.0486680    0.0084783   -0.6800978   -0.2690743    0.6819575
   0.0011544   -0.0503360    0.0083142   -0.4543568   -0.1152913    0.8833277
   0.0010117   -0.0496800    0.0082623   -0.7509895   -0.0644194    0.6571643
   0.0011425   -0.0469700    0.0086323   -0.6476910    0.2412972    0.7226839
   0.0009114   -0.0476020    0.0086562   -0.8628315    0.1587343    0.4799221
   0.0008502   -0.0481370    0.0085055   -0.9231661   -0.1392082    0.3583091
   0.0003553   -0.0409460    0.0062047   -0.7351919    0.0235845    0.6774487
  -0.0002286   -0.0425470    0.0058132   -0.7262125    0.0641045    0.6844750
   0.0003177   -0.0398690    0.0060131   -0.7219593    0.0273031    0.6913966
   0.0009611   -0.0459720    0.0071339   -0.9995548    0.0078935   -0.0287749
   0.0009137   -0.0457430    0.0068546   -0.9299148    0.0790272    0.3591840
  -0.0004085   -0.0448800    0.0056860   -0.7387003    0.0024508    0.6740296
   0.0002051   -0.0464430    0.0063501   -0.6372142    0.0654797    0.7679001
  -0.0003010   -0.0458240    0.0058858   -0.6856742    0.0458286    0.7264645
   0.0006402   -0.0460250    0.0065894   -0.6556160    0.1033338    0.7479905
   0.0008175   -0.0474240    0.0076593   -0.9984095    0.0061887    0.0560379
   0.0008830   -0.0464830    0.0071674   -0.9869994    0.1150092    0.1122725
  -0.0007665   -0.0426890    0.0051296   -0.8312244    0.0392037    0.5545531
  -0.0013583   -0.0451390    0.0042859   -0.9172712    0.0125239    0.3980662
  -0.0010247   -0.0438210    0.0048154   -0.8437241    0.0298406    0.5359469
  -0.0015015   -0.0481250    0.0040978   -0.9502397    0.0155217    0.3111327
  -0.0018636   -0.0482580    0.0006530   -0.9955582    0.0147728   -0.0929815
  -0.0019554   -0.0499310    0.0005412   -0.9812270    0.0606304   -0.1830782
  -0.0019244   -0.0490060    0.0007495   -0.9839955    0.0281091   -0.1759624
  -0.0020277   -0.0507340    0.0018862   -0.9997720    0.0198407    0.0078909
  -0.0019446   -0.0494450    0.0023817   -0.9907935    0.0269462    0.1326733
  -0.0017342   -0.0493490    0.0002809   -0.9648422    0.0232440   -0.2618001
  -0.0017806   -0.0512830    0.0000344   -0.9495282   -0.0319058   -0.3120547
  -0.0015740   -0.0522780   -0.0002713   -0.8501232   -0.0354453   -0.5253895
  -0.0010565   -0.0530400   -0.0008741   -0.5906773   -0.0535415   -0.8051296
   0.0002515   -0.0540660   -0.0012397   -0.2009319   -0.0761908   -0.9766378
   0.0009960   -0.0529680   -0.0013989   -0.0166294   -0.0698181   -0.9974211
  -0.0004613   -0.0544380   -0.0009888   -0.3822045   -0.0905570   -0.9196299
   0.0026653   -0.0532660    0.0068146    0.8944246   -0.0931261    0.4374153
   0.0026102   -0.0530540    0.0072265    0.9577564    0.0517326    0.2828894
   0.0024607   -0.0526640    0.0073678    0.8223998    0.4007831    0.4037715
   0.0011257   -0.0548460   -0.0012570    0.0313357   -0.0828827   -0.9960665
   0.0022105   -0.0558680   -0.0010183    0.2171695   -0.0818698   -0.9726946
   0.0032171   -0.0572480   -0.0006373    0.4344824   -0.0623646   -0.8985186
   0.0036464   -0.0570870   -0.0003077    0.8060680   -0.0630060   -0.5884595
   0.0038817   -0.0568430    0.0003452    0.9508744   -0.0476020   -0.3058953
   0.0037825   -0.0578620   -0.0000607    0.9125369   -0.0743373   -0.4021821
   0.0042201   -0.0589290    0.0014897    0.9603550   -0.1443898   -0.2384739
   0.0026786   -0.0538930    0.0066915    0.6573384   -0.0379575    0.7526390
   0.0041431   -0.0586340    0.0048621    0.8822267   -0.0270535    0.4700470
   0.0030760   -0.0572960    0.0060850    0.7264952   -0.0123600    0.6870603
   0.0034954   -0.0580910    0.0056914    0.7939369    0.0337302    0.6070639
   0.0043963   -0.0592170    0.0040381    0.9919311   -0.1034165    0.0733328
   0.0043009   -0.0592370    0.0036590    0.8009384   -0.3948276   -0.4501210
   0.0044732   -0.0586890    0.0027769    0.8908328   -0.4448123   -0.0925144
   0.0043874   -0.0588790    0.0031875    0.6640731   -0.7248322   -0.1833716
   0.0030053   -0.0563080    0.0063420    0.6448426   -0.0754517    0.7605821
   0.0030200   -0.0549390    0.0064525    0.5865524   -0.0565058    0.8079377
   0.0018835   -0.0528810    0.0078993    0.6031519   -0.0922359    0.7922754
   0.0024346   -0.0529450    0.0075630    0.7257726    0.1073228    0.6795116
   0.0013339   -0.0523770    0.0083966    0.1387480    0.1158338    0.9835301
   0.0012356   -0.0521820    0.0082064   -0.0541777    0.3769381    0.9246526
   0.0010209   -0.0515690    0.0081742   -0.4652644   -0.0131834    0.8850736
   0.0014920   -0.0523790    0.0082120    0.6208940   -0.0880237    0.7789368
   0.0011854   -0.0513300    0.0082978    0.1739507   -0.0963663    0.9800279
   0.0008694   -0.0485400    0.0081749   -0.9726306   -0.0986292    0.2103854
   0.0007103   -0.0502540    0.0079075   -0.8589350    0.0311550    0.5111360
   0.0008669   -0.0494050    0.0079269   -0.9626700    0.1017014    0.2508453
   0.0007949   -0.0466080    0.0069024   -0.8223988    0.1448801    0.5501545
  -0.0011350   -0.0457920    0.0046706   -0.8425122    0.0278093    0.5379589
  -0.0006425   -0.0467400    0.0055498   -0.7737052    0.0284003    0.6329089
   0.0005321   -0.0472760    0.0067208   -0.7430407    0.0609097    0.6664687
   0.0008451   -0.0492160    0.0072926   -0.9742296    0.0547256    0.2188190
   0.0007618   -0.0475570    0.0071310   -0.9293270    0.0696283    0.3626338
  -0.0011851   -0.0484670    0.0047420   -0.8731272    0.0232191    0.4869393
  -0.0016776   -0.0496750    0.0036985   -0.9509353    0.0345997    0.3074490
  -0.0019910   -0.0526330    0.0014427   -0.9917350    0.0012414   -0.1282970
  -0.0020061   -0.0517350    0.0025837   -0.9937537    0.0294375    0.1076434
  -0.0018671   -0.0530660    0.0003996   -0.9696433   -0.0369733   -0.2417124
  -0.0014544   -0.0533010   -0.0004871   -0.7851614   -0.0120996   -0.6191730
  -0.0015946   -0.0544440   -0.0001737   -0.8894133   -0.0863393   -0.4488759
  -0.0013340   -0.0543540   -0.0005445   -0.6741409   -0.1273140   -0.7275473
   0.0001714   -0.0552390   -0.0011684   -0.2104709   -0.0741498   -0.9747840
  -0.0006318   -0.0557650   -0.0008018   -0.4516878   -0.0794999   -0.8886270
   0.0023233   -0.0538690    0.0070996    0.5755730   -0.4071826    0.7091672
   0.0024382   -0.0532880    0.0074766    0.7015043   -0.3471309    0.6224081
   0.0010864   -0.0566200   -0.0011416    0.0112483   -0.0808863   -0.9966599
   0.0019089   -0.0574290   -0.0009773    0.2112300   -0.0825183   -0.9739469
   0.0032764   -0.0584330   -0.0004917    0.4701810   -0.0828406   -0.8786736
   0.0036166   -0.0577440   -0.0003659    0.7105400   -0.0785131   -0.6992629
   0.0035491   -0.0586800   -0.0001882    0.8296926   -0.0960079   -0.5499024
   0.0037525   -0.0585940    0.0002628    0.9247091   -0.0364900   -0.3789216
   0.0041941   -0.0594000    0.0013698    0.9872084   -0.0783288   -0.1388672
   0.0042709   -0.0589530    0.0021565    0.8910143   -0.4491666    0.0659003
   0.0026486   -0.0542540    0.0066813    0.4696538   -0.1046603    0.8766251
   0.0043429   -0.0606420    0.0044693    0.9480014   -0.0159963    0.3178639
   0.0041022   -0.0596270    0.0049986    0.8322060    0.0195073    0.5541233
   0.0035138   -0.0590470    0.0056330    0.8127707    0.0411754    0.5811268
   0.0029267   -0.0582190    0.0065004    0.6586684    0.0542476    0.7504753
   0.0024112   -0.0570350    0.0067158    0.5394344    0.0026417    0.8420235
   0.0031128   -0.0585420    0.0062978    0.7902503    0.0096626    0.6127079
   0.0043933   -0.0604720    0.0039422    0.9820247    0.0780541   -0.1718577
   0.0042801   -0.0598700    0.0037306    0.8244778    0.0359816   -0.5647492
   0.0036672   -0.0595160    0.0030285    0.9067682   -0.2391676   -0.3472323
   0.0041517   -0.0589580    0.0032090    0.6899676   -0.6956780   -0.1999419
   0.0040502   -0.0592770    0.0032348    0.7633518   -0.5933627   -0.2553716
   0.0042600   -0.0589520    0.0028591    0.6753006   -0.7375257    0.0049937
   0.0023459   -0.0557980    0.0067626    0.4492562   -0.0211566    0.8931524
   0.0015057   -0.0534960    0.0080035    0.6594281   -0.2155832    0.7201934
   0.0018650   -0.0535360    0.0076231    0.5805095   -0.4911334    0.6494588
   0.0015231   -0.0528510    0.0082032    0.4409331   -0.1132669    0.8903643
   0.0012521   -0.0526240    0.0082620    0.0595866   -0.2025901    0.9774491
   0.0010039   -0.0523740    0.0082004   -0.3843548    0.0408573    0.9222809
   0.0007045   -0.0513200    0.0077295   -0.8905030    0.0239169    0.4543484
   0.0007466   -0.0521090    0.0079981   -0.7842630    0.0786634    0.6154214
   0.0004900   -0.0507950    0.0074075   -0.9876935    0.0193525    0.1552000
   0.0006018   -0.0500930    0.0073973   -0.9741307    0.2057701    0.0934243
  -0.0006370   -0.0483290    0.0055796   -0.7681998    0.0300841    0.6395030
  -0.0001409   -0.0494470    0.0061474   -0.6928736    0.0482513    0.7194429
   0.0004418   -0.0483130    0.0066890   -0.8013579    0.0036775    0.5981739
   0.0006174   -0.0502050    0.0069281   -0.8880090    0.1868814    0.4201373
   0.0006269   -0.0492200    0.0068606   -0.8007213   -0.0001959    0.5990370
  -0.0013515   -0.0504080    0.0046130   -0.8774745    0.0505560    0.4769514
  -0.0016446   -0.0512770    0.0039595   -0.9531518    0.0388460    0.2999876
  -0.0020487   -0.0532170    0.0015225   -0.9926327    0.0185395   -0.1197359
  -0.0018802   -0.0536680    0.0009990   -0.9813076    0.0332937   -0.1895441
  -0.0019515   -0.0535680    0.0031916   -0.9801458   -0.0035702    0.1982462
  -0.0018429   -0.0536790    0.0004650   -0.9689712    0.0070615   -0.2470727
  -0.0017087   -0.0548540    0.0001927   -0.8649302   -0.0730693   -0.4965447
  -0.0013330   -0.0552200   -0.0003764   -0.7042355   -0.0487202   -0.7082928
  -0.0000769   -0.0575050   -0.0008619   -0.3049726   -0.0784207   -0.9491269
  -0.0010937   -0.0560460   -0.0005451   -0.5629296   -0.0488225   -0.8250616
  -0.0010290   -0.0579050   -0.0003775   -0.5391044   -0.0769214   -0.8387190
   0.0017076   -0.0541500    0.0071039    0.3460569   -0.5663635    0.7479820
   0.0022066   -0.0544440    0.0068304    0.2652546   -0.2259066    0.9373400
   0.0007903   -0.0583750   -0.0009749   -0.0627740   -0.0572644   -0.9963836
   0.0019240   -0.0583990   -0.0008860    0.1721237   -0.0740161   -0.9822907
   0.0031143   -0.0602620   -0.0004169    0.3960927   -0.0841214   -0.9143490
   0.0035856   -0.0596700   -0.0002021    0.7442625   -0.0343826   -0.6670016
   0.0037577   -0.0599280    0.0000812    0.8982762   -0.0885198   -0.4304231
   0.0039089   -0.0598270    0.0007044    0.9506247   -0.0742837   -0.3013216
   0.0041165   -0.0601550    0.0013906    0.9724223   -0.0479867   -0.2282369
   0.0041375   -0.0599850    0.0019283    0.9673607    0.1262436    0.2197176
   0.0041248   -0.0594340    0.0019843    0.8730372   -0.2577666    0.4139594
   0.0041070   -0.0591090    0.0023235    0.6969833   -0.6528975    0.2965452
   0.0017929   -0.0553190    0.0069828    0.2365315   -0.0197627    0.9714228
   0.0021149   -0.0548280    0.0068803    0.3346144    0.1052600    0.9364580
   0.0044519   -0.0610930    0.0038914    0.9894687    0.0181846    0.1436002
   0.0041573   -0.0612520    0.0047412    0.9175676    0.1006228    0.3846359
   0.0038190   -0.0610300    0.0053138    0.8429012    0.0217055    0.5376303
   0.0034568   -0.0599490    0.0058727    0.7681649    0.0126489    0.6401271
   0.0019652   -0.0594530    0.0069063    0.3400903   -0.0109406    0.9403292
   0.0028557   -0.0600440    0.0064314    0.5791136   -0.0409532    0.8142176
   0.0018597   -0.0567620    0.0069967    0.2475860    0.0112790    0.9688003
   0.0042497   -0.0602750    0.0035010    0.8700260    0.3637480   -0.3327793
   0.0044188   -0.0610130    0.0027805    0.9699067    0.2174849   -0.1094596
   0.0037632   -0.0593930    0.0025156    0.8759889   -0.3297737    0.3519840
   0.0036895   -0.0598920    0.0027186    0.9295619    0.3578544    0.0886282
   0.0038772   -0.0591610    0.0027098    0.6793644   -0.7327416   -0.0394179
   0.0012177   -0.0533310    0.0082298    0.1365273   -0.0435072    0.9896805
   0.0012808   -0.0536180    0.0082302    0.3418742   -0.2166079    0.9144414
   0.0012830   -0.0540910    0.0079760    0.5478978   -0.6589169    0.5153993
   0.0014715   -0.0540800    0.0075568    0.5425196   -0.7801429    0.3115278
   0.0007291   -0.0537080    0.0080983   -0.6536418   -0.2032763    0.7289932
   0.0009516   -0.0537300    0.0081825   -0.2129475   -0.1468671    0.9659624
