NORM_ASCII
3991 7978
3 2613 2707 2706 
3 2708 2707 2614 
3 2708 2614 2702 
3 2709 2615 2616 
3 2621 2615 2709 
3 2709 2616 2695 
3 2710 2618 2617 
3 2711 2617 2619 
3 2711 2710 2617 
3 2620 2618 2712 
3 2710 2712 2618 
3 2629 2711 2619 
3 2684 2620 2712 
3 2621 2709 2713 
3 2621 2713 2714 
3 2621 2714 2622 
3 2714 2625 2622 
3 2626 2715 2623 
3 2623 2715 2716 
3 2717 2623 2716 
3 2717 2624 2623 
3 2717 2718 2624 
3 2718 2631 2624 
3 2714 2719 2625 
3 2720 2625 2719 
3 2626 2625 2720 
3 2626 2720 2721 
3 2626 2721 2715 
3 2628 2627 2634 
3 2629 2628 2722 
3 2628 2634 2635 
3 2628 2723 2722 
3 2628 2635 2724 
3 2628 2724 2723 
3 2629 2725 2711 
3 2629 2726 2725 
3 2629 2722 2726 
3 2632 2630 2631 
3 2727 2631 2718 
3 2727 2632 2631 
3 2727 2728 2632 
3 2633 2632 2728 
3 2633 2729 2636 
3 2730 2729 2633 
3 2730 2633 2728 
3 2729 2635 2636 
3 2724 2635 2731 
3 2729 2731 2635 
3 2732 2637 2678 
3 2732 2733 2637 
3 2734 2637 2733 
3 2638 2637 2734 
3 2735 2639 2638 
3 2736 2735 2638 
3 2737 2736 2638 
3 2737 2638 2733 
3 2638 2734 2738 
3 2638 2738 2733 
3 2640 2639 2739 
3 2739 2639 2740 
3 2740 2639 2735 
3 2741 2640 2739 
3 2741 2641 2640 
3 2742 2641 2741 
3 2743 2642 2641 
3 2742 2743 2641 
3 2743 2643 2642 
3 2743 2744 2643 
3 2744 2644 2643 
3 2744 2745 2644 
3 2646 2644 2745 
3 2746 2747 2645 
3 2748 2645 2646 
3 2748 2746 2645 
3 2645 2747 2647 
3 2646 2745 2748 
3 2648 2647 2747 
3 2648 2749 2649 
3 2750 2749 2648 
3 2750 2648 2751 
3 2648 2747 2751 
3 2650 2649 2749 
3 2752 2650 2749 
3 2651 2650 2752 
3 2653 2651 2752 
3 2655 2662 2652 
3 2653 2752 2753 
3 2656 2654 2653 
3 2656 2653 2753 
3 2655 2663 2662 
3 2754 2663 2655 
3 2755 2655 2658 
3 2754 2655 2755 
3 2656 2753 2756 
3 2657 2656 2756 
3 2757 2657 2756 
3 2758 2659 2657 
3 2757 2759 2657 
3 2759 2758 2657 
3 2658 2659 2760 
3 2755 2658 2760 
3 2758 2761 2659 
3 2760 2659 2761 
3 2668 2660 2762 
3 2762 2660 2664 
3 2664 2661 2663 
3 2763 2664 2663 
3 2763 2663 2754 
3 2763 2762 2664 
3 2666 2665 2764 
3 2669 2764 2665 
3 2765 2667 2666 
3 2766 2765 2666 
3 2766 2666 2764 
3 2765 2704 2667 
3 2669 2668 2762 
3 2767 2669 2762 
3 2767 2764 2669 
3 2768 2676 2670 
3 2768 2670 2672 
3 2671 2769 2672 
3 2671 2675 2769 
3 2769 2770 2672 
3 2768 2672 2770 
3 2675 2673 2681 
3 2674 2681 2673 
3 2771 2675 2681 
3 2769 2675 2771 
3 2772 2676 2768 
3 2772 2773 2676 
3 2676 2773 2677 
3 2678 2677 2773 
3 2772 2678 2773 
3 2772 2774 2678 
3 2732 2678 2774 
3 2775 2681 2679 
3 2775 2679 2680 
3 2775 2680 2776 
3 2680 2777 2776 
3 2680 2682 2778 
3 2680 2778 2777 
3 2775 2771 2681 
3 2682 2683 2779 
3 2682 2779 2778 
3 2780 2779 2683 
3 2780 2683 2687 
3 2684 2781 2685 
3 2782 2684 2712 
3 2782 2781 2684 
3 2685 2783 2686 
3 2782 2685 2781 
3 2685 2784 2783 
3 2782 2785 2685 
3 2685 2785 2784 
3 2688 2686 2783 
3 2786 2780 2687 
3 2786 2687 2689 
3 2688 2783 2787 
3 2688 2787 2788 
3 2688 2788 2689 
3 2786 2689 2789 
3 2788 2789 2689 
3 2690 2713 2692 
3 2690 2790 2713 
3 2690 2791 2790 
3 2690 2698 2791 
3 2713 2694 2692 
3 2792 2695 2693 
3 2792 2693 2694 
3 2713 2792 2694 
3 2792 2709 2695 
3 2696 2793 2701 
3 2697 2794 2696 
3 2696 2794 2793 
3 2697 2706 2794 
3 2795 2698 2699 
3 2795 2791 2698 
3 2796 2699 2700 
3 2795 2699 2796 
3 2796 2700 2701 
3 2793 2796 2701 
3 2708 2702 2797 
3 2797 2702 2703 
3 2798 2797 2703 
3 2705 2799 2703 
3 2798 2703 2799 
3 2765 2800 2704 
3 2705 2704 2800 
3 2705 2800 2801 
3 2705 2801 2802 
3 2705 2802 2799 
3 2803 2706 2707 
3 2794 2706 2804 
3 2803 2804 2706 
3 2803 2707 2708 
3 2803 2708 2805 
3 2708 2797 2805 
3 2713 2709 2792 
3 2710 2806 2712 
3 2711 2807 2710 
3 2807 2808 2710 
3 2710 2808 2806 
3 2711 2725 2807 
3 2782 2712 2806 
3 2713 2790 2809 
3 2714 2713 2809 
3 2714 2809 2719 
3 2721 2716 2715 
3 2721 2810 2716 
3 2811 2716 2810 
3 2717 2716 2811 
3 2717 2811 2812 
3 2813 2717 2812 
3 2813 2718 2717 
3 2813 2814 2718 
3 2727 2718 2814 
3 2719 2809 2815 
3 2816 2719 2815 
3 2720 2719 2816 
3 2720 2816 2817 
3 2720 2817 2721 
3 2721 2817 2818 
3 2721 2818 2810 
3 2726 2722 2819 
3 2723 2819 2722 
3 2724 2820 2723 
3 2723 2820 2819 
3 2724 2731 2821 
3 2724 2821 2820 
3 2822 2807 2725 
3 2823 2725 2726 
3 2822 2725 2823 
3 2824 2726 2819 
3 2824 2823 2726 
3 2727 2814 2825 
3 2727 2825 2826 
3 2727 2827 2728 
3 2727 2826 2827 
3 2827 2828 2728 
3 2828 2730 2728 
3 2730 2829 2729 
3 2821 2731 2729 
3 2821 2729 2829 
3 2828 2830 2730 
3 2730 2830 2829 
3 2732 2774 2831 
3 2732 2831 2832 
3 2732 2832 2737 
3 2732 2737 2733 
3 2734 2733 2738 
3 2736 2833 2735 
3 2834 2735 2833 
3 2834 2740 2735 
3 2737 2776 2736 
3 2777 2736 2776 
3 2835 2736 2777 
3 2835 2833 2736 
3 2737 2832 2776 
3 2836 2739 2740 
3 2741 2739 2836 
3 2837 2740 2834 
3 2838 2839 2740 
3 2836 2740 2839 
3 2838 2740 2837 
3 2741 2836 2840 
3 2741 2840 2841 
3 2742 2741 2841 
3 2842 2843 2742 
3 2742 2844 2842 
3 2742 2841 2844 
3 2742 2843 2743 
3 2743 2843 2744 
3 2843 2745 2744 
3 2845 2745 2843 
3 2748 2745 2846 
3 2847 2745 2845 
3 2745 2848 2846 
3 2847 2848 2745 
3 2747 2746 2849 
3 2849 2746 2850 
3 2846 2746 2748 
3 2846 2850 2746 
3 2849 2751 2747 
3 2851 2852 2749 
3 2752 2749 2852 
3 2750 2851 2749 
3 2750 2751 2853 
3 2853 2851 2750 
3 2853 2751 2849 
3 2854 2752 2852 
3 2854 2753 2752 
3 2854 2756 2753 
3 2763 2754 2855 
3 2754 2755 2856 
3 2754 2857 2855 
3 2754 2856 2857 
3 2755 2760 2858 
3 2755 2859 2856 
3 2755 2858 2859 
3 2854 2860 2756 
3 2757 2756 2860 
3 2861 2862 2757 
3 2757 2862 2863 
3 2757 2863 2864 
3 2757 2864 2759 
3 2861 2757 2860 
3 2758 2865 2761 
3 2759 2866 2758 
3 2758 2866 2865 
3 2759 2864 2867 
3 2759 2867 2866 
3 2858 2760 2761 
3 2858 2761 2865 
3 2763 2868 2762 
3 2767 2762 2868 
3 2763 2855 2868 
3 2767 2766 2764 
3 2766 2869 2765 
3 2765 2869 2800 
3 2767 2870 2766 
3 2766 2870 2869 
3 2767 2868 2871 
3 2767 2871 2872 
3 2767 2872 2870 
3 2768 2770 2873 
3 2772 2768 2873 
3 2769 2874 2770 
3 2769 2771 2874 
3 2875 2770 2874 
3 2875 2873 2770 
3 2775 2874 2771 
3 2772 2873 2876 
3 2772 2877 2774 
3 2772 2876 2877 
3 2774 2877 2831 
3 2775 2878 2874 
3 2775 2832 2878 
3 2775 2776 2832 
3 2879 2777 2778 
3 2835 2777 2880 
3 2879 2880 2777 
3 2879 2778 2779 
3 2879 2779 2780 
3 2879 2780 2881 
3 2786 2881 2780 
3 2782 2806 2882 
3 2782 2882 2883 
3 2782 2883 2785 
3 2783 2784 2787 
3 2884 2784 2785 
3 2884 2787 2784 
3 2885 2785 2883 
3 2884 2785 2885 
3 2786 2886 2881 
3 2786 2789 2887 
3 2786 2887 2888 
3 2786 2888 2886 
3 2788 2787 2889 
3 2884 2889 2787 
3 2788 2889 2890 
3 2788 2890 2789 
3 2887 2789 2890 
3 2791 2809 2790 
3 2791 2816 2815 
3 2795 2817 2791 
3 2791 2817 2816 
3 2791 2815 2809 
3 2891 2796 2793 
3 2794 2892 2793 
3 2891 2793 2892 
3 2893 2794 2804 
3 2893 2892 2794 
3 2795 2796 2891 
3 2795 2818 2817 
3 2795 2891 2818 
3 2894 2805 2797 
3 2798 2894 2797 
3 2798 2895 2894 
3 2798 2799 2896 
3 2798 2897 2895 
3 2798 2896 2898 
3 2798 2898 2897 
3 2802 2896 2799 
3 2899 2800 2869 
3 2800 2900 2801 
3 2899 2900 2800 
3 2901 2801 2900 
3 2802 2801 2901 
3 2802 2902 2896 
3 2802 2903 2902 
3 2802 2901 2903 
3 2803 2805 2804 
3 2893 2804 2904 
3 2805 2904 2804 
3 2894 2905 2805 
3 2905 2904 2805 
3 2906 2806 2808 
3 2906 2882 2806 
3 2807 2907 2808 
3 2822 2907 2807 
3 2906 2808 2907 
3 2810 2818 2908 
3 2810 2908 2909 
3 2810 2909 2910 
3 2811 2810 2910 
3 2812 2811 2911 
3 2811 2912 2911 
3 2811 2913 2912 
3 2811 2910 2913 
3 2813 2812 2914 
3 2812 2915 2914 
3 2916 2812 2911 
3 2916 2915 2812 
3 2813 2914 2814 
3 2917 2814 2914 
3 2814 2918 2825 
3 2917 2918 2814 
3 2891 2909 2818 
3 2909 2908 2818 
3 2824 2819 2820 
3 2821 2919 2820 
3 2824 2820 2919 
3 2920 2821 2829 
3 2920 2919 2821 
3 2822 2921 2907 
3 2822 2823 2922 
3 2822 2923 2921 
3 2822 2922 2923 
3 2823 2924 2922 
3 2824 2924 2823 
3 2824 2919 2925 
3 2824 2926 2924 
3 2824 2925 2926 
3 2927 2826 2825 
3 2918 2927 2825 
3 2827 2826 2928 
3 2928 2826 2927 
3 2827 2928 2929 
3 2827 2930 2828 
3 2827 2929 2930 
3 2828 2930 2931 
3 2828 2931 2932 
3 2828 2932 2830 
3 2830 2933 2829 
3 2920 2829 2933 
3 2934 2830 2932 
3 2934 2933 2830 
3 2935 2831 2877 
3 2935 2878 2831 
3 2832 2831 2878 
3 2835 2834 2833 
3 2835 2936 2834 
3 2936 2837 2834 
3 2835 2880 2936 
3 2838 2836 2839 
3 2838 2937 2836 
3 2840 2836 2937 
3 2938 2838 2837 
3 2936 2939 2837 
3 2938 2837 2939 
3 2838 2940 2937 
3 2938 2940 2838 
3 2941 2840 2937 
3 2941 2841 2840 
3 2942 2841 2941 
3 2942 2844 2841 
3 2943 2843 2842 
3 2943 2842 2844 
3 2944 2843 2945 
3 2945 2843 2943 
3 2946 2843 2944 
3 2947 2843 2946 
3 2845 2843 2948 
3 2948 2843 2947 
3 2942 2949 2844 
3 2943 2844 2949 
3 2950 2845 2947 
3 2947 2845 2948 
3 2951 2845 2950 
3 2951 2847 2845 
3 2850 2846 2848 
3 2951 2952 2847 
3 2952 2953 2847 
3 2847 2953 2848 
3 2954 2848 2953 
3 2954 2955 2848 
3 2850 2848 2955 
3 2956 2853 2849 
3 2849 2850 2956 
3 2956 2850 2955 
3 2851 2854 2852 
3 2851 2957 2854 
3 2853 2957 2851 
3 2956 2957 2853 
3 2957 2860 2854 
3 2868 2855 2958 
3 2855 2857 2959 
3 2960 2958 2855 
3 2960 2855 2959 
3 2961 2857 2856 
3 2961 2856 2859 
3 2962 2959 2857 
3 2961 2962 2857 
3 2859 2858 2865 
3 2963 2859 2865 
3 2961 2859 2963 
3 2964 2860 2957 
3 2964 2965 2860 
3 2861 2860 2965 
3 2861 2966 2862 
3 2967 2968 2861 
3 2967 2861 2965 
3 2968 2966 2861 
3 2966 2969 2862 
3 2863 2862 2969 
3 2864 2863 2970 
3 2863 2969 2971 
3 2863 2971 2970 
3 2864 2970 2972 
3 2864 2973 2867 
3 2864 2972 2973 
3 2974 2865 2866 
3 2974 2963 2865 
3 2974 2866 2867 
3 2974 2867 2975 
3 2867 2973 2975 
3 2868 2958 2871 
3 2869 2870 2976 
3 2899 2869 2976 
3 2872 2976 2870 
3 2871 2958 2977 
3 2871 2977 2978 
3 2872 2871 2978 
3 2979 2872 2978 
3 2980 2976 2872 
3 2980 2872 2979 
3 2875 2876 2873 
3 2875 2874 2981 
3 2874 2878 2935 
3 2874 2935 2981 
3 2875 2935 2876 
3 2875 2981 2935 
3 2935 2877 2876 
3 2879 2881 2982 
3 2879 2982 2880 
3 2936 2880 2982 
3 2983 2982 2881 
3 2983 2881 2886 
3 2906 2984 2882 
3 2985 2883 2882 
3 2984 2985 2882 
3 2885 2883 2985 
3 2884 2986 2889 
3 2884 2885 2987 
3 2884 2987 2986 
3 2988 2885 2985 
3 2988 2989 2885 
3 2885 2989 2987 
3 2990 2991 2886 
3 2886 2888 2990 
3 2991 2983 2886 
3 2992 2888 2887 
3 2992 2887 2993 
3 2993 2887 2890 
3 2990 2888 2950 
3 2951 2950 2888 
3 2992 2951 2888 
3 2986 2890 2889 
3 2986 2994 2890 
3 2890 2994 2993 
3 2891 2892 2995 
3 2891 2995 2909 
3 2893 2996 2892 
3 2996 2995 2892 
3 2893 2904 2996 
3 2894 2997 2905 
3 2894 2998 2997 
3 2894 2895 2998 
3 2895 2999 2998 
3 2897 2999 2895 
3 2896 3000 2898 
3 2896 2902 3000 
3 2897 2898 3000 
3 2897 3000 3001 
3 2897 3001 2999 
3 2980 2899 2976 
3 2980 3002 2899 
3 2899 3002 2900 
3 3002 2901 2900 
3 3003 2901 3002 
3 3003 2903 2901 
3 2902 2903 3004 
3 3005 3000 2902 
3 3005 2902 3004 
3 3003 3006 2903 
3 3006 3004 2903 
3 3007 2996 2904 
3 3007 2904 3008 
3 2905 3008 2904 
3 2905 3009 3008 
3 2905 2997 3010 
3 2905 3010 3009 
3 2906 2907 2921 
3 2906 2921 2984 
3 2909 2995 2910 
3 2910 2995 3011 
3 3012 2910 3011 
3 3012 2913 2910 
3 3013 3014 2911 
3 3013 2911 2912 
3 3015 2911 3014 
3 2916 2911 3015 
3 3016 3017 2912 
3 3018 2912 3017 
3 2913 3016 2912 
3 3013 2912 3018 
3 3012 3016 2913 
3 2914 2915 3019 
3 2917 2914 3019 
3 2916 3020 2915 
3 3021 2915 3020 
3 3019 2915 3021 
3 2916 3022 3020 
3 2916 3015 3022 
3 2917 3019 3023 
3 2917 3023 2918 
3 2918 3024 2927 
3 3023 3024 2918 
3 3025 2925 2919 
3 2920 3025 2919 
3 2934 2920 2933 
3 2934 3026 2920 
3 2920 3026 3027 
3 2920 3027 3025 
3 3028 2984 2921 
3 3028 2921 2923 
3 3029 2923 2922 
3 2922 2924 3030 
3 3029 2922 3030 
3 3031 3028 2923 
3 3029 3031 2923 
3 2924 2926 3030 
3 3032 2926 2925 
3 3032 2925 3025 
3 3033 3030 2926 
3 3032 3033 2926 
3 3034 2927 3024 
3 2928 2927 3035 
3 3034 3035 2927 
3 2929 2928 3035 
3 2929 3035 3036 
3 2929 3037 2930 
3 2929 3038 3037 
3 2929 3036 3038 
3 2930 3037 2931 
3 3039 2931 3037 
3 3039 2932 2931 
3 2934 2932 3039 
3 2934 3039 3040 
3 2934 3040 3041 
3 2934 3041 3026 
3 2936 2982 2983 
3 2936 2983 3042 
3 2936 3042 2939 
3 2941 2937 2940 
3 2938 2939 3043 
3 2938 3043 3044 
3 2938 3044 2940 
3 3043 2939 3042 
3 2941 2940 3045 
3 3044 3045 2940 
3 2941 3045 3046 
3 2942 2941 3046 
3 3047 2942 3046 
3 2943 2942 3047 
3 2943 2949 2942 
3 3047 2945 2943 
3 2944 2945 3047 
3 3047 3046 2944 
3 3046 3045 2944 
3 2944 3045 2946 
3 2947 2946 3044 
3 2946 3045 3044 
3 3048 2947 3044 
3 2947 3048 2950 
3 2950 2991 2990 
3 2950 3048 2991 
3 2951 2992 2952 
3 2992 3049 2952 
3 2952 3049 3050 
3 3050 2953 2952 
3 2954 2953 3050 
3 3051 2954 3052 
3 2954 3053 3052 
3 3054 2955 2954 
3 2954 3051 3054 
3 3050 3053 2954 
3 2956 2955 3055 
3 3055 2955 3054 
3 3055 2957 2956 
3 2957 2967 2965 
3 2965 2964 2957 
3 3054 2967 2957 
3 3055 3054 2957 
3 2960 2977 2958 
3 2960 2959 3056 
3 3056 2959 2962 
3 2960 3056 3057 
3 2960 3057 2977 
3 2961 2963 3058 
3 2961 3059 2962 
3 2961 3058 3059 
3 3060 3056 2962 
3 3060 2962 3059 
3 2963 3059 3058 
3 3061 3059 2963 
3 2974 3062 2963 
3 3063 3061 2963 
3 3063 2963 3062 
3 2966 3064 2969 
3 2966 2968 3064 
3 3065 2968 2967 
3 2967 3054 3065 
3 3064 2968 3066 
3 3067 2968 3065 
3 3068 2968 3067 
3 3069 2968 3068 
3 3066 2968 3069 
3 3070 2969 3064 
3 2971 2969 3070 
3 3071 2972 2970 
3 3071 2970 2971 
3 3072 2971 3070 
3 3071 2971 3073 
3 3073 2971 3072 
3 3074 2973 2972 
3 3074 2972 3071 
3 3075 2975 2973 
3 3074 3075 2973 
3 2974 2975 3062 
3 3076 3062 2975 
3 3076 2975 3075 
3 3077 2978 2977 
3 3077 2977 3057 
3 3077 3078 2978 
3 2979 2978 3078 
3 3079 2979 3078 
3 3079 3080 2979 
3 2980 2979 3080 
3 2980 3080 3081 
3 2980 3081 3002 
3 3043 3042 2983 
3 2991 3043 2983 
3 3082 2985 2984 
3 3082 2984 3028 
3 2988 2985 3083 
3 3082 3083 2985 
3 3084 2986 2987 
3 3085 2986 3086 
3 3085 2994 2986 
3 3084 3086 2986 
3 3087 2987 2989 
3 3084 2987 3087 
3 2988 3087 2989 
3 3088 2988 3083 
3 3088 3087 2988 
3 2991 3048 3043 
3 2993 3049 2992 
3 2993 3089 3049 
3 2993 2994 3090 
3 2993 3090 3089 
3 3090 2994 3085 
3 2996 3011 2995 
3 2996 3012 3011 
3 3007 3012 2996 
3 3010 2997 2998 
3 3091 3010 2998 
3 2999 3092 2998 
3 3091 2998 3092 
3 3093 3092 2999 
3 2999 3001 3094 
3 3093 2999 3094 
3 3095 3001 3000 
3 3095 3000 3005 
3 3095 3096 3001 
3 3094 3001 3097 
3 3001 3096 3097 
3 3002 3081 3098 
3 3002 3098 3099 
3 3003 3002 3099 
3 3003 3099 3100 
3 3003 3100 3006 
3 3101 3005 3004 
3 3101 3004 3006 
3 3005 3102 3103 
3 3005 3104 3102 
3 3101 3104 3005 
3 3095 3005 3103 
3 3006 3100 3105 
3 3101 3006 3105 
3 3007 3017 3012 
3 3007 3008 3106 
3 3007 3018 3017 
3 3007 3106 3018 
3 3106 3008 3009 
3 3107 3106 3009 
3 3107 3009 3010 
3 3091 3107 3010 
3 3012 3017 3016 
3 3013 3018 3014 
3 3108 3014 3018 
3 3108 3015 3014 
3 3108 3109 3015 
3 3015 3109 3022 
3 3108 3018 3106 
3 3019 3021 3110 
3 3023 3019 3110 
3 3111 3020 3022 
3 3112 3021 3020 
3 3112 3020 3111 
3 3112 3110 3021 
3 3109 3111 3022 
3 3023 3110 3113 
3 3023 3113 3114 
3 3034 3023 3114 
3 3034 3024 3023 
3 3025 3027 3115 
3 3025 3115 3116 
3 3032 3025 3116 
3 3026 3041 3117 
3 3118 3026 3117 
3 3026 3119 3027 
3 3118 3119 3026 
3 3115 3027 3119 
3 3082 3028 3120 
3 3031 3120 3028 
3 3029 3121 3031 
3 3029 3030 3122 
3 3029 3122 3121 
3 3122 3030 3033 
3 3031 3123 3120 
3 3031 3124 3123 
3 3031 3121 3124 
3 3125 3033 3032 
3 3032 3116 3126 
3 3125 3032 3126 
3 3127 3122 3033 
3 3125 3127 3033 
3 3034 3128 3035 
3 3034 3114 3129 
3 3034 3129 3128 
3 3128 3036 3035 
3 3128 3130 3036 
3 3131 3038 3036 
3 3131 3036 3130 
3 3132 3037 3038 
3 3039 3037 3132 
3 3133 3132 3038 
3 3131 3134 3038 
3 3134 3133 3038 
3 3039 3132 3135 
3 3039 3135 3040 
3 3136 3040 3135 
3 3136 3041 3040 
3 3137 3041 3136 
3 3137 3117 3041 
3 3044 3043 3048 
3 3138 3049 3089 
3 3050 3049 3138 
3 3050 3139 3053 
3 3138 3139 3050 
3 3051 3052 3140 
3 3051 3140 3054 
3 3052 3141 3142 
3 3142 3143 3052 
3 3140 3052 3143 
3 3052 3139 3141 
3 3053 3139 3052 
3 3065 3054 3140 
3 3060 3057 3056 
3 3060 3144 3057 
3 3077 3057 3144 
3 3060 3059 3061 
3 3060 3061 3145 
3 3060 3145 3144 
3 3146 3145 3061 
3 3146 3061 3063 
3 3063 3062 3147 
3 3076 3147 3062 
3 3063 3147 3148 
3 3146 3063 3148 
3 3149 3064 3066 
3 3070 3064 3149 
3 3065 3140 3067 
3 3149 3066 3150 
3 3150 3066 3151 
3 3066 3152 3151 
3 3152 3066 3153 
3 3066 3069 3154 
3 3153 3066 3154 
3 3067 3140 3155 
3 3155 3156 3067 
3 3157 3068 3067 
3 3157 3067 3156 
3 3157 3158 3068 
3 3158 3159 3068 
3 3068 3159 3154 
3 3068 3154 3069 
3 3072 3070 3149 
3 3071 3073 3160 
3 3074 3071 3160 
3 3161 3072 3149 
3 3162 3073 3072 
3 3162 3072 3161 
3 3162 3163 3073 
3 3160 3073 3163 
3 3074 3160 3164 
3 3074 3164 3075 
3 3165 3076 3075 
3 3075 3164 3166 
3 3167 3165 3075 
3 3167 3075 3166 
3 3168 3147 3076 
3 3165 3168 3076 
3 3079 3078 3077 
3 3077 3144 3169 
3 3079 3077 3170 
3 3077 3171 3170 
3 3077 3169 3171 
3 3079 3172 3080 
3 3079 3170 3172 
3 3081 3080 3172 
3 3081 3172 3173 
3 3174 3081 3173 
3 3174 3098 3081 
3 3082 3175 3083 
3 3082 3120 3123 
3 3082 3176 3175 
3 3082 3123 3176 
3 3088 3083 3177 
3 3083 3175 3177 
3 3084 3087 3178 
3 3084 3178 3179 
3 3084 3179 3086 
3 3086 3179 3085 
3 3085 3179 3180 
3 3085 3180 3089 
3 3090 3085 3089 
3 3088 3178 3087 
3 3088 3177 3181 
3 3088 3182 3178 
3 3088 3181 3182 
3 3180 3183 3089 
3 3183 3138 3089 
3 3091 3184 3107 
3 3091 3185 3184 
3 3091 3186 3185 
3 3091 3092 3187 
3 3091 3187 3186 
3 3093 3187 3092 
3 3093 3188 3187 
3 3093 3189 3188 
3 3093 3094 3190 
3 3093 3190 3189 
3 3190 3094 3097 
3 3095 3103 3096 
3 3102 3096 3103 
3 3097 3096 3191 
3 3191 3096 3102 
3 3097 3191 3192 
3 3190 3097 3192 
3 3174 3193 3098 
3 3098 3193 3099 
3 3193 3194 3099 
3 3194 3195 3099 
3 3100 3099 3195 
3 3196 3100 3195 
3 3196 3105 3100 
3 3101 3105 3197 
3 3101 3198 3104 
3 3101 3197 3198 
3 3199 3191 3102 
3 3104 3199 3102 
3 3104 3200 3199 
3 3198 3200 3104 
3 3196 3201 3105 
3 3105 3201 3202 
3 3105 3203 3197 
3 3105 3202 3203 
3 3107 3184 3106 
3 3108 3106 3184 
3 3108 3184 3204 
3 3108 3204 3109 
3 3109 3204 3205 
3 3109 3205 3111 
3 3112 3206 3110 
3 3207 3110 3206 
3 3207 3113 3110 
3 3111 3205 3208 
3 3112 3111 3208 
3 3112 3208 3206 
3 3207 3114 3113 
3 3207 3129 3114 
3 3209 3115 3119 
3 3209 3116 3115 
3 3209 3126 3116 
3 3137 3210 3117 
3 3211 3117 3210 
3 3118 3117 3211 
3 3212 3119 3118 
3 3118 3211 3213 
3 3214 3212 3118 
3 3214 3118 3213 
3 3209 3119 3212 
3 3215 3121 3122 
3 3215 3124 3121 
3 3127 3215 3122 
3 3176 3123 3216 
3 3123 3217 3216 
3 3123 3124 3218 
3 3123 3218 3217 
3 3218 3124 3219 
3 3215 3219 3124 
3 3125 3220 3127 
3 3125 3126 3221 
3 3125 3222 3220 
3 3125 3221 3222 
3 3209 3221 3126 
3 3127 3223 3215 
3 3127 3220 3223 
3 3128 3129 3224 
3 3128 3224 3130 
3 3207 3224 3129 
3 3224 3225 3130 
3 3131 3130 3225 
3 3131 3226 3134 
3 3227 3131 3225 
3 3227 3228 3131 
3 3131 3228 3226 
3 3135 3132 3133 
3 3229 3133 3134 
3 3229 3135 3133 
3 3226 3230 3134 
3 3229 3134 3230 
3 3229 3136 3135 
3 3229 3231 3136 
3 3137 3136 3231 
3 3137 3231 3232 
3 3137 3232 3233 
3 3137 3233 3210 
3 3183 3139 3138 
3 3141 3139 3183 
3 3155 3140 3143 
3 3142 3141 3234 
3 3234 3141 3235 
3 3183 3235 3141 
3 3236 3237 3142 
3 3234 3236 3142 
3 3142 3237 3143 
3 3143 3237 3155 
3 3238 3144 3145 
3 3238 3169 3144 
3 3146 3238 3145 
3 3146 3148 3239 
3 3146 3240 3238 
3 3146 3239 3240 
3 3168 3148 3147 
3 3168 3239 3148 
3 3161 3149 3150 
3 3161 3150 3241 
3 3241 3150 3152 
3 3152 3150 3151 
3 3241 3152 3153 
3 3242 3241 3153 
3 3243 3242 3153 
3 3244 3243 3153 
3 3153 3154 3245 
3 3245 3244 3153 
3 3245 3154 3246 
3 3246 3154 3159 
3 3247 3156 3155 
3 3237 3247 3155 
3 3248 3156 3249 
3 3247 3249 3156 
3 3157 3156 3248 
3 3158 3157 3248 
3 3248 3250 3158 
3 3251 3252 3158 
3 3251 3158 3250 
3 3159 3158 3252 
3 3246 3159 3252 
3 3253 3160 3163 
3 3164 3160 3253 
3 3161 3241 3242 
3 3161 3242 3254 
3 3162 3161 3254 
3 3162 3254 3255 
3 3162 3255 3163 
3 3253 3163 3256 
3 3256 3163 3255 
3 3257 3164 3253 
3 3166 3164 3257 
3 3165 3258 3168 
3 3167 3259 3165 
3 3165 3259 3258 
3 3260 3166 3257 
3 3167 3166 3260 
3 3167 3260 3261 
3 3167 3262 3259 
3 3167 3261 3262 
3 3168 3263 3239 
3 3168 3258 3263 
3 3264 3169 3238 
3 3264 3171 3169 
3 3265 3172 3170 
3 3171 3266 3170 
3 3265 3170 3266 
3 3264 3267 3171 
3 3267 3268 3171 
3 3268 3266 3171 
3 3265 3173 3172 
3 3265 3174 3173 
3 3174 3269 3193 
3 3265 3269 3174 
3 3181 3177 3175 
3 3181 3175 3270 
3 3176 3270 3175 
3 3176 3271 3270 
3 3176 3272 3271 
3 3176 3216 3272 
3 3182 3273 3178 
3 3273 3179 3178 
3 3180 3179 3273 
3 3180 3273 3274 
3 3274 3235 3180 
3 3183 3180 3235 
3 3181 3275 3182 
3 3181 3270 3276 
3 3181 3276 3275 
3 3275 3277 3182 
3 3277 3278 3182 
3 3278 3273 3182 
3 3204 3184 3185 
3 3204 3185 3186 
3 3279 3204 3186 
3 3186 3187 3280 
3 3279 3186 3280 
3 3188 3280 3187 
3 3188 3281 3280 
3 3189 3281 3188 
3 3190 3282 3189 
3 3189 3283 3281 
3 3189 3282 3283 
3 3190 3192 3282 
3 3284 3191 3199 
3 3284 3192 3191 
3 3285 3192 3284 
3 3285 3282 3192 
3 3193 3286 3194 
3 3269 3286 3193 
3 3287 3194 3286 
3 3287 3195 3194 
3 3196 3195 3287 
3 3288 3196 3287 
3 3288 3201 3196 
3 3198 3197 3289 
3 3203 3289 3197 
3 3198 3290 3200 
3 3198 3291 3290 
3 3198 3289 3291 
3 3292 3284 3199 
3 3292 3199 3200 
3 3290 3292 3200 
3 3288 3293 3201 
3 3294 3201 3293 
3 3294 3202 3201 
3 3294 3203 3202 
3 3295 3289 3203 
3 3296 3295 3203 
3 3294 3297 3203 
3 3296 3203 3297 
3 3279 3205 3204 
3 3279 3298 3205 
3 3298 3299 3205 
3 3299 3208 3205 
3 3299 3206 3208 
3 3300 3206 3299 
3 3207 3206 3300 
3 3207 3300 3301 
3 3207 3301 3224 
3 3209 3212 3302 
3 3209 3303 3221 
3 3209 3302 3303 
3 3210 3233 3304 
3 3210 3304 3305 
3 3211 3210 3305 
3 3211 3305 3306 
3 3211 3306 3307 
3 3211 3307 3213 
3 3214 3308 3212 
3 3212 3308 3302 
3 3309 3213 3307 
3 3214 3213 3310 
3 3309 3310 3213 
3 3214 3311 3308 
3 3214 3310 3311 
3 3215 3312 3219 
3 3215 3223 3312 
3 3313 3272 3216 
3 3217 3313 3216 
3 3314 3217 3218 
3 3217 3315 3313 
3 3314 3315 3217 
3 3314 3218 3219 
3 3312 3316 3219 
3 3314 3219 3316 
3 3223 3220 3317 
3 3222 3317 3220 
3 3222 3221 3318 
3 3221 3303 3318 
3 3222 3318 3319 
3 3222 3319 3317 
3 3320 3223 3317 
3 3320 3312 3223 
3 3224 3301 3225 
3 3321 3225 3301 
3 3227 3225 3321 
3 3322 3230 3226 
3 3322 3226 3228 
3 3227 3323 3228 
3 3227 3321 3324 
3 3227 3324 3325 
3 3227 3325 3323 
3 3326 3228 3323 
3 3322 3228 3326 
3 3229 3230 3231 
3 3322 3231 3230 
3 3322 3232 3231 
3 3322 3327 3232 
3 3328 3232 3327 
3 3328 3233 3232 
3 3328 3304 3233 
3 3236 3234 3329 
3 3330 3234 3235 
3 3329 3234 3330 
3 3235 3331 3330 
3 3274 3331 3235 
3 3237 3236 3329 
3 3237 3329 3332 
3 3332 3247 3237 
3 3264 3238 3240 
3 3239 3333 3240 
3 3263 3333 3239 
3 3264 3240 3333 
3 3254 3242 3243 
3 3243 3334 3335 
3 3254 3243 3335 
3 3336 3334 3243 
3 3336 3243 3244 
3 3245 3336 3244 
3 3337 3336 3245 
3 3246 3337 3245 
3 3338 3337 3246 
3 3246 3252 3338 
3 3332 3249 3247 
3 3248 3249 3339 
3 3248 3339 3250 
3 3340 3249 3332 
3 3341 3249 3340 
3 3339 3249 3341 
3 3251 3250 3342 
3 3343 3342 3250 
3 3344 3250 3339 
3 3343 3250 3344 
3 3345 3252 3251 
3 3251 3342 3345 
3 3338 3252 3345 
3 3346 3253 3256 
3 3257 3253 3346 
3 3254 3347 3255 
3 3254 3335 3347 
3 3346 3256 3255 
3 3347 3348 3255 
3 3349 3255 3348 
3 3346 3255 3349 
3 3350 3257 3349 
3 3350 3260 3257 
3 3257 3346 3349 
3 3259 3351 3258 
3 3263 3258 3351 
3 3352 3351 3259 
3 3352 3259 3262 
3 3350 3261 3260 
3 3350 3353 3261 
3 3354 3262 3261 
3 3354 3261 3353 
3 3352 3262 3355 
3 3355 3262 3354 
3 3263 3351 3356 
3 3263 3357 3333 
3 3263 3356 3357 
3 3264 3333 3358 
3 3264 3358 3267 
3 3265 3266 3359 
3 3265 3359 3269 
3 3360 3359 3266 
3 3360 3266 3268 
3 3267 3361 3268 
3 3362 3267 3358 
3 3361 3267 3362 
3 3268 3361 3360 
3 3360 3269 3359 
3 3360 3363 3269 
3 3269 3363 3286 
3 3364 3276 3270 
3 3365 3364 3270 
3 3365 3270 3271 
3 3366 3271 3272 
3 3365 3271 3366 
3 3366 3272 3313 
3 3274 3273 3278 
3 3278 3331 3274 
3 3275 3367 3277 
3 3275 3276 3368 
3 3275 3368 3367 
3 3364 3368 3276 
3 3367 3369 3277 
3 3278 3277 3369 
3 3278 3369 3331 
3 3279 3280 3370 
3 3279 3371 3298 
3 3279 3370 3371 
3 3280 3281 3370 
3 3372 3370 3281 
3 3373 3281 3283 
3 3372 3281 3373 
3 3282 3374 3283 
3 3285 3375 3282 
3 3282 3375 3374 
3 3373 3283 3376 
3 3374 3376 3283 
3 3285 3284 3292 
3 3285 3292 3377 
3 3285 3378 3375 
3 3285 3377 3379 
3 3285 3379 3380 
3 3285 3380 3378 
3 3381 3286 3363 
3 3287 3286 3381 
3 3287 3381 3382 
3 3288 3287 3382 
3 3288 3382 3383 
3 3288 3384 3293 
3 3288 3383 3384 
3 3295 3291 3289 
3 3290 3377 3292 
3 3290 3291 3377 
3 3385 3377 3291 
3 3385 3291 3295 
3 3294 3293 3386 
3 3387 3386 3293 
3 3387 3293 3384 
3 3294 3386 3297 
3 3385 3295 3388 
3 3296 3389 3295 
3 3389 3388 3295 
3 3296 3297 3390 
3 3296 3391 3389 
3 3296 3390 3391 
3 3386 3392 3297 
3 3390 3297 3392 
3 3298 3393 3299 
3 3298 3371 3393 
3 3300 3299 3393 
3 3300 3393 3394 
3 3300 3394 3301 
3 3321 3301 3394 
3 3308 3395 3302 
3 3302 3396 3303 
3 3302 3395 3396 
3 3396 3318 3303 
3 3328 3397 3304 
3 3305 3304 3398 
3 3397 3398 3304 
3 3305 3398 3306 
3 3306 3398 3399 
3 3400 3307 3306 
3 3400 3306 3399 
3 3400 3309 3307 
3 3308 3401 3395 
3 3308 3311 3401 
3 3402 3310 3309 
3 3400 3403 3309 
3 3402 3309 3403 
3 3311 3310 3402 
3 3404 3401 3311 
3 3311 3402 3405 
3 3404 3311 3405 
3 3320 3406 3312 
3 3312 3406 3316 
3 3366 3313 3407 
3 3313 3315 3407 
3 3316 3315 3314 
3 3407 3315 3408 
3 3409 3315 3316 
3 3410 3315 3409 
3 3408 3315 3410 
3 3409 3316 3411 
3 3411 3316 3406 
3 3320 3317 3412 
3 3412 3317 3319 
3 3413 3318 3396 
3 3413 3414 3318 
3 3319 3318 3414 
3 3412 3319 3415 
3 3319 3414 3416 
3 3319 3417 3415 
3 3319 3416 3417 
3 3418 3320 3412 
3 3418 3406 3320 
3 3321 3394 3419 
3 3420 3321 3419 
3 3420 3324 3321 
3 3322 3326 3327 
3 3325 3421 3323 
3 3326 3323 3421 
3 3420 3422 3324 
3 3324 3422 3423 
3 3325 3324 3423 
3 3325 3424 3421 
3 3325 3423 3425 
3 3426 3424 3325 
3 3426 3325 3425 
3 3326 3427 3327 
3 3428 3326 3421 
3 3428 3427 3326 
3 3327 3427 3429 
3 3328 3327 3429 
3 3328 3429 3430 
3 3328 3430 3397 
3 3330 3332 3329 
3 3330 3431 3332 
3 3431 3330 3432 
3 3330 3331 3432 
3 3433 3331 3434 
3 3435 3331 3433 
3 3434 3331 3369 
3 3432 3331 3435 
3 3431 3340 3332 
3 3436 3358 3333 
3 3436 3333 3357 
3 3334 3437 3335 
3 3438 3437 3334 
3 3438 3334 3439 
3 3336 3439 3334 
3 3440 3335 3437 
3 3440 3347 3335 
3 3439 3336 3337 
3 3441 3438 3337 
3 3337 3438 3439 
3 3442 3337 3338 
3 3443 3337 3442 
3 3441 3337 3443 
3 3444 3338 3445 
3 3445 3338 3345 
3 3442 3338 3444 
3 3446 3339 3341 
3 3446 3344 3339 
3 3431 3341 3340 
3 3447 3341 3431 
3 3448 3341 3447 
3 3446 3341 3449 
3 3449 3341 3448 
3 3345 3342 3450 
3 3450 3342 3451 
3 3343 3451 3342 
3 3344 3451 3343 
3 3452 3451 3344 
3 3453 3452 3344 
3 3453 3344 3446 
3 3454 3345 3450 
3 3445 3345 3454 
3 3440 3455 3347 
3 3347 3455 3348 
3 3456 3349 3348 
3 3456 3348 3455 
3 3456 3350 3349 
3 3456 3457 3350 
3 3350 3457 3353 
3 3356 3351 3458 
3 3352 3458 3351 
3 3352 3355 3459 
3 3352 3459 3458 
3 3460 3353 3457 
3 3461 3354 3353 
3 3462 3353 3460 
3 3461 3353 3462 
3 3355 3354 3461 
3 3355 3461 3463 
3 3464 3355 3463 
3 3464 3459 3355 
3 3356 3465 3357 
3 3356 3458 3465 
3 3436 3357 3465 
3 3362 3358 3436 
3 3360 3466 3363 
3 3467 3360 3361 
3 3360 3467 3466 
3 3361 3362 3468 
3 3468 3467 3361 
3 3469 3362 3436 
3 3470 3362 3469 
3 3468 3362 3471 
3 3362 3470 3471 
3 3466 3472 3363 
3 3381 3363 3472 
3 3473 3368 3364 
3 3365 3474 3364 
3 3473 3364 3474 
3 3365 3475 3474 
3 3365 3366 3476 
3 3365 3476 3475 
3 3476 3366 3407 
3 3367 3434 3369 
3 3473 3434 3367 
3 3473 3367 3368 
3 3477 3371 3370 
3 3372 3477 3370 
3 3478 3393 3371 
3 3477 3478 3371 
3 3372 3373 3376 
3 3372 3376 3479 
3 3372 3480 3477 
3 3372 3479 3480 
3 3374 3375 3378 
3 3374 3378 3376 
3 3481 3376 3378 
3 3481 3482 3376 
3 3479 3376 3482 
3 3385 3379 3377 
3 3380 3481 3378 
3 3380 3379 3483 
3 3484 3483 3379 
3 3385 3484 3379 
3 3485 3481 3380 
3 3485 3380 3483 
3 3486 3381 3472 
3 3486 3382 3381 
3 3486 3383 3382 
3 3487 3488 3383 
3 3383 3489 3487 
3 3488 3384 3383 
3 3489 3383 3486 
3 3387 3384 3490 
3 3490 3384 3488 
3 3385 3388 3484 
3 3386 3491 3392 
3 3386 3492 3491 
3 3387 3492 3386 
3 3387 3490 3493 
3 3493 3492 3387 
3 3494 3388 3389 
3 3494 3484 3388 
3 3494 3389 3495 
3 3389 3391 3495 
3 3390 3392 3496 
3 3497 3391 3390 
3 3497 3390 3496 
3 3498 3495 3391 
3 3498 3391 3497 
3 3499 3496 3392 
3 3499 3392 3491 
3 3500 3393 3478 
3 3500 3394 3393 
3 3500 3419 3394 
3 3501 3396 3395 
3 3395 3401 3502 
3 3501 3395 3502 
3 3501 3413 3396 
3 3397 3503 3398 
3 3430 3504 3397 
3 3397 3504 3503 
3 3398 3503 3399 
3 3505 3399 3503 
3 3400 3399 3505 
3 3400 3506 3403 
3 3400 3505 3507 
3 3400 3507 3506 
3 3404 3502 3401 
3 3506 3402 3403 
3 3506 3405 3402 
3 3404 3405 3508 
3 3404 3509 3510 
3 3509 3404 3511 
3 3511 3404 3508 
3 3404 3510 3502 
3 3506 3508 3405 
3 3512 3406 3418 
3 3411 3406 3512 
3 3513 3476 3407 
3 3408 3513 3407 
3 3410 3514 3408 
3 3514 3513 3408 
3 3411 3410 3409 
3 3514 3410 3515 
3 3515 3410 3411 
3 3411 3512 3516 
3 3516 3515 3411 
3 3418 3412 3415 
3 3413 3416 3414 
3 3413 3517 3416 
3 3501 3518 3413 
3 3518 3517 3413 
3 3418 3415 3519 
3 3519 3415 3417 
3 3520 3416 3517 
3 3520 3417 3416 
3 3521 3519 3417 
3 3521 3417 3520 
3 3418 3519 3512 
3 3420 3419 3500 
3 3420 3500 3522 
3 3523 3420 3522 
3 3523 3422 3420 
3 3428 3421 3424 
3 3523 3524 3422 
3 3524 3423 3422 
3 3524 3425 3423 
3 3428 3424 3426 
3 3524 3525 3425 
3 3426 3425 3526 
3 3525 3527 3425 
3 3527 3526 3425 
3 3426 3526 3528 
3 3428 3426 3528 
3 3529 3429 3427 
3 3428 3529 3427 
3 3428 3530 3529 
3 3428 3528 3530 
3 3430 3429 3529 
3 3430 3529 3531 
3 3532 3430 3531 
3 3532 3504 3430 
3 3447 3431 3432 
3 3432 3533 3447 
3 3435 3533 3432 
3 3473 3433 3434 
3 3435 3433 3534 
3 3473 3534 3433 
3 3435 3534 3535 
3 3435 3535 3536 
3 3435 3536 3533 
3 3436 3465 3469 
3 3440 3437 3441 
3 3437 3438 3441 
3 3440 3537 3455 
3 3538 3537 3440 
3 3538 3440 3539 
3 3539 3440 3540 
3 3541 3440 3443 
3 3541 3540 3440 
3 3443 3440 3441 
3 3442 3444 3541 
3 3442 3541 3443 
3 3445 3542 3444 
3 3543 3444 3542 
3 3541 3444 3543 
3 3542 3445 3454 
3 3449 3453 3446 
3 3447 3533 3448 
3 3448 3533 3544 
3 3544 3545 3448 
3 3448 3545 3546 
3 3546 3449 3448 
3 3546 3453 3449 
3 3450 3547 3454 
3 3450 3548 3547 
3 3549 3548 3450 
3 3451 3549 3450 
3 3549 3451 3452 
3 3549 3452 3550 
3 3452 3551 3550 
3 3453 3551 3452 
3 3552 3551 3453 
3 3552 3453 3546 
3 3547 3542 3454 
3 3456 3455 3537 
3 3456 3537 3457 
3 3538 3457 3537 
3 3460 3457 3553 
3 3538 3553 3457 
3 3554 3465 3458 
3 3554 3458 3459 
3 3464 3554 3459 
3 3555 3462 3460 
3 3555 3460 3556 
3 3556 3460 3553 
3 3557 3461 3558 
3 3461 3462 3558 
3 3557 3463 3461 
3 3557 3558 3462 
3 3557 3462 3555 
3 3464 3463 3559 
3 3560 3559 3463 
3 3463 3557 3560 
3 3464 3559 3561 
3 3561 3554 3464 
3 3469 3465 3562 
3 3465 3554 3562 
3 3486 3472 3466 
3 3563 3489 3466 
3 3466 3467 3563 
3 3489 3486 3466 
3 3564 3467 3468 
3 3563 3467 3565 
3 3566 3467 3564 
3 3565 3467 3566 
3 3468 3471 3564 
3 3469 3562 3470 
3 3562 3567 3470 
3 3568 3471 3470 
3 3470 3569 3568 
3 3570 3569 3470 
3 3470 3567 3570 
3 3471 3568 3564 
3 3473 3571 3534 
3 3473 3474 3572 
3 3473 3572 3571 
3 3475 3572 3474 
3 3572 3475 3573 
3 3475 3574 3575 
3 3573 3475 3575 
3 3476 3574 3475 
3 3513 3574 3476 
3 3480 3576 3477 
3 3477 3522 3478 
3 3477 3576 3522 
3 3500 3478 3522 
3 3479 3482 3577 
3 3479 3577 3578 
3 3579 3480 3479 
3 3579 3479 3578 
3 3480 3580 3576 
3 3579 3580 3480 
3 3485 3482 3481 
3 3485 3577 3482 
3 3494 3483 3484 
3 3494 3581 3483 
3 3485 3483 3581 
3 3485 3582 3577 
3 3485 3581 3582 
3 3583 3488 3487 
3 3489 3584 3487 
3 3487 3584 3583 
3 3488 3585 3490 
3 3585 3488 3583 
3 3489 3565 3584 
3 3489 3563 3565 
3 3490 3586 3493 
3 3585 3586 3490 
3 3587 3491 3492 
3 3587 3499 3491 
3 3587 3492 3493 
3 3587 3493 3588 
3 3493 3586 3588 
3 3494 3589 3581 
3 3494 3495 3589 
3 3498 3589 3495 
3 3497 3496 3590 
3 3499 3590 3496 
3 3498 3497 3591 
3 3497 3592 3591 
3 3497 3590 3592 
3 3498 3591 3593 
3 3498 3593 3594 
3 3498 3594 3595 
3 3498 3595 3589 
3 3499 3596 3590 
3 3597 3596 3499 
3 3597 3499 3587 
3 3501 3502 3510 
3 3598 3518 3501 
3 3501 3510 3598 
3 3599 3503 3504 
3 3599 3505 3503 
3 3532 3600 3504 
3 3600 3599 3504 
3 3601 3505 3599 
3 3602 3507 3505 
3 3601 3602 3505 
3 3603 3506 3507 
3 3603 3604 3506 
3 3506 3604 3508 
3 3603 3507 3602 
3 3604 3605 3508 
3 3606 3607 3508 
3 3606 3508 3605 
3 3607 3511 3508 
3 3608 3510 3509 
3 3609 3509 3511 
3 3608 3509 3610 
3 3509 3609 3610 
3 3598 3510 3611 
3 3608 3611 3510 
3 3511 3607 3609 
3 3612 3512 3519 
3 3516 3512 3612 
3 3613 3574 3513 
3 3513 3514 3613 
3 3613 3514 3614 
3 3514 3615 3614 
3 3515 3615 3514 
3 3515 3516 3615 
3 3616 3516 3612 
3 3617 3516 3616 
3 3615 3516 3617 
3 3618 3619 3517 
3 3517 3518 3611 
3 3517 3611 3618 
3 3520 3517 3619 
3 3611 3518 3598 
3 3612 3519 3521 
3 3521 3520 3620 
3 3520 3619 3620 
3 3521 3620 3612 
3 3523 3522 3576 
3 3523 3576 3580 
3 3523 3580 3621 
3 3523 3621 3524 
3 3524 3621 3622 
3 3524 3622 3525 
3 3525 3622 3623 
3 3624 3525 3623 
3 3624 3527 3525 
3 3527 3625 3526 
3 3626 3526 3625 
3 3528 3526 3626 
3 3624 3625 3527 
3 3530 3528 3627 
3 3628 3528 3626 
3 3628 3627 3528 
3 3529 3530 3531 
3 3530 3627 3531 
3 3532 3531 3627 
3 3532 3627 3629 
3 3532 3629 3630 
3 3532 3630 3600 
3 3533 3536 3631 
3 3631 3632 3533 
3 3544 3533 3632 
3 3571 3535 3534 
3 3633 3535 3571 
3 3634 3535 3633 
3 3634 3536 3535 
3 3635 3536 3634 
3 3631 3536 3635 
3 3636 3538 3539 
3 3553 3538 3636 
3 3636 3539 3637 
3 3540 3637 3539 
3 3540 3557 3637 
3 3540 3541 3543 
3 3543 3557 3540 
3 3543 3542 3638 
3 3638 3542 3639 
3 3542 3547 3639 
3 3640 3543 3641 
3 3641 3543 3638 
3 3557 3543 3640 
3 3642 3544 3632 
3 3545 3544 3642 
3 3643 3644 3545 
3 3545 3642 3643 
3 3546 3545 3644 
3 3546 3644 3552 
3 3645 3646 3547 
3 3647 3547 3646 
3 3547 3548 3645 
3 3639 3547 3647 
3 3550 3548 3549 
3 3648 3548 3550 
3 3645 3548 3648 
3 3648 3550 3649 
3 3550 3551 3649 
3 3649 3551 3650 
3 3551 3651 3650 
3 3552 3651 3551 
3 3644 3651 3552 
3 3636 3556 3553 
3 3567 3554 3561 
3 3562 3554 3567 
3 3555 3556 3636 
3 3637 3557 3555 
3 3637 3555 3636 
3 3560 3557 3652 
3 3652 3557 3640 
3 3653 3559 3654 
3 3561 3559 3653 
3 3559 3655 3654 
3 3656 3655 3559 
3 3657 3656 3559 
3 3652 3559 3560 
3 3657 3559 3652 
3 3567 3561 3569 
3 3569 3561 3658 
3 3561 3653 3658 
3 3564 3568 3659 
3 3564 3659 3566 
3 3566 3584 3565 
3 3659 3660 3566 
3 3566 3660 3584 
3 3569 3570 3567 
3 3568 3661 3662 
3 3568 3569 3661 
3 3568 3662 3659 
3 3661 3569 3658 
3 3572 3633 3571 
3 3573 3663 3572 
3 3572 3663 3633 
3 3575 3663 3573 
3 3575 3574 3642 
3 3643 3574 3613 
3 3642 3574 3643 
3 3632 3663 3575 
3 3632 3575 3642 
3 3582 3578 3577 
3 3579 3578 3582 
3 3579 3582 3664 
3 3579 3665 3580 
3 3579 3664 3665 
3 3621 3580 3665 
3 3582 3581 3666 
3 3666 3581 3589 
3 3582 3666 3664 
3 3584 3660 3583 
3 3583 3660 3667 
3 3583 3667 3585 
3 3585 3667 3586 
3 3586 3667 3668 
3 3669 3586 3668 
3 3588 3586 3669 
3 3587 3670 3597 
3 3587 3671 3670 
3 3588 3671 3587 
3 3669 3671 3588 
3 3666 3589 3595 
3 3592 3590 3596 
3 3672 3591 3592 
3 3672 3593 3591 
3 3596 3673 3592 
3 3672 3592 3673 
3 3593 3674 3594 
3 3593 3675 3674 
3 3593 3676 3675 
3 3672 3676 3593 
3 3677 3595 3594 
3 3677 3594 3678 
3 3678 3594 3674 
3 3666 3595 3677 
3 3597 3673 3596 
3 3670 3673 3597 
3 3601 3599 3600 
3 3600 3630 3679 
3 3601 3600 3680 
3 3600 3679 3680 
3 3601 3680 3681 
3 3682 3602 3601 
3 3682 3601 3681 
3 3603 3602 3683 
3 3682 3683 3602 
3 3684 3604 3603 
3 3684 3603 3683 
3 3604 3685 3605 
3 3684 3685 3604 
3 3606 3605 3686 
3 3686 3605 3685 
3 3606 3687 3607 
3 3606 3688 3689 
3 3689 3687 3606 
3 3606 3686 3688 
3 3607 3687 3609 
3 3608 3690 3611 
3 3608 3610 3691 
3 3691 3690 3608 
3 3609 3687 3692 
3 3610 3609 3692 
3 3692 3691 3610 
3 3611 3690 3618 
3 3612 3693 3616 
3 3620 3693 3612 
3 3613 3614 3643 
3 3651 3614 3694 
3 3614 3615 3694 
3 3643 3614 3644 
3 3644 3614 3651 
3 3617 3694 3615 
3 3695 3616 3696 
3 3616 3693 3696 
3 3617 3616 3695 
3 3697 3617 3695 
3 3694 3617 3697 
3 3698 3619 3618 
3 3618 3690 3699 
3 3618 3699 3700 
3 3700 3698 3618 
3 3620 3619 3698 
3 3620 3698 3693 
3 3621 3665 3622 
3 3665 3701 3622 
3 3623 3622 3701 
3 3623 3701 3702 
3 3624 3623 3702 
3 3624 3702 3703 
3 3624 3703 3704 
3 3624 3705 3625 
3 3624 3704 3705 
3 3706 3626 3625 
3 3706 3625 3705 
3 3628 3626 3707 
3 3707 3626 3706 
3 3629 3627 3628 
3 3708 3628 3707 
3 3708 3629 3628 
3 3708 3709 3629 
3 3629 3709 3630 
3 3709 3679 3630 
3 3635 3632 3631 
3 3632 3710 3663 
3 3635 3710 3632 
3 3634 3633 3663 
3 3634 3663 3710 
3 3634 3710 3635 
3 3711 3638 3639 
3 3712 3638 3711 
3 3638 3712 3641 
3 3639 3713 3714 
3 3639 3714 3711 
3 3639 3647 3713 
3 3641 3712 3640 
3 3640 3712 3657 
3 3652 3640 3657 
3 3715 3646 3645 
3 3645 3648 3715 
3 3715 3716 3646 
3 3646 3717 3647 
3 3646 3716 3717 
3 3717 3713 3647 
3 3648 3649 3715 
3 3650 3718 3649 
3 3649 3718 3715 
3 3719 3720 3650 
3 3650 3651 3721 
3 3721 3719 3650 
3 3650 3720 3718 
3 3721 3651 3722 
3 3694 3722 3651 
3 3723 3653 3654 
3 3658 3653 3724 
3 3724 3653 3723 
3 3654 3725 3723 
3 3655 3725 3654 
3 3726 3725 3655 
3 3655 3727 3728 
3 3728 3726 3655 
3 3727 3655 3656 
3 3657 3712 3656 
3 3714 3727 3656 
3 3656 3712 3711 
3 3711 3714 3656 
3 3661 3658 3662 
3 3724 3729 3658 
3 3662 3658 3729 
3 3730 3660 3659 
3 3659 3662 3730 
3 3731 3660 3730 
3 3667 3660 3731 
3 3730 3662 3729 
3 3664 3666 3677 
3 3664 3677 3732 
3 3665 3664 3732 
3 3665 3732 3733 
3 3665 3733 3701 
3 3668 3667 3731 
3 3668 3734 3735 
3 3735 3669 3668 
3 3668 3736 3737 
3 3737 3734 3668 
3 3731 3736 3668 
3 3738 3669 3735 
3 3738 3671 3669 
3 3670 3739 3673 
3 3670 3671 3739 
3 3739 3671 3738 
3 3672 3673 3676 
3 3740 3673 3741 
3 3742 3741 3673 
3 3742 3673 3739 
3 3740 3676 3673 
3 3743 3674 3675 
3 3678 3674 3744 
3 3743 3744 3674 
3 3740 3675 3676 
3 3740 3745 3675 
3 3743 3675 3746 
3 3745 3746 3675 
3 3732 3677 3678 
3 3732 3678 3747 
3 3678 3744 3747 
3 3709 3748 3679 
3 3748 3680 3679 
3 3681 3680 3748 
3 3681 3748 3749 
3 3681 3749 3750 
3 3682 3681 3751 
3 3751 3681 3750 
3 3682 3752 3683 
3 3682 3751 3752 
3 3684 3683 3752 
3 3684 3686 3685 
3 3753 3684 3752 
3 3754 3684 3753 
3 3754 3686 3684 
3 3755 3688 3686 
3 3755 3686 3754 
3 3692 3687 3689 
3 3756 3689 3688 
3 3755 3757 3688 
3 3688 3757 3756 
3 3689 3758 3759 
3 3759 3692 3689 
3 3756 3758 3689 
3 3690 3691 3699 
3 3760 3691 3692 
3 3691 3761 3699 
3 3761 3691 3762 
3 3762 3691 3760 
3 3760 3692 3759 
3 3696 3693 3698 
3 3722 3694 3719 
3 3694 3697 3719 
3 3695 3696 3763 
3 3697 3695 3764 
3 3764 3695 3765 
3 3765 3695 3763 
3 3698 3766 3696 
3 3767 3763 3696 
3 3696 3766 3768 
3 3767 3696 3768 
3 3720 3719 3697 
3 3697 3764 3720 
3 3700 3766 3698 
3 3700 3699 3761 
3 3762 3700 3761 
3 3766 3700 3769 
3 3769 3700 3762 
3 3770 3701 3733 
3 3770 3702 3701 
3 3770 3771 3702 
3 3703 3702 3771 
3 3704 3703 3771 
3 3772 3704 3771 
3 3772 3773 3704 
3 3704 3773 3774 
3 3704 3774 3705 
3 3775 3706 3705 
3 3775 3705 3774 
3 3776 3707 3706 
3 3775 3776 3706 
3 3708 3707 3776 
3 3708 3776 3777 
3 3708 3777 3709 
3 3709 3777 3778 
3 3709 3778 3748 
3 3714 3713 3779 
3 3717 3716 3713 
3 3713 3716 3780 
3 3781 3713 3780 
3 3713 3781 3779 
3 3782 3727 3714 
3 3714 3779 3782 
3 3718 3716 3715 
3 3716 3718 3783 
3 3784 3716 3783 
3 3716 3784 3780 
3 3718 3720 3783 
3 3719 3721 3722 
3 3785 3720 3764 
3 3720 3785 3783 
3 3723 3725 3786 
3 3724 3723 3786 
3 3787 3724 3786 
3 3788 3729 3724 
3 3787 3788 3724 
3 3786 3725 3789 
3 3789 3725 3790 
3 3790 3725 3791 
3 3791 3725 3726 
3 3728 3792 3726 
3 3726 3792 3791 
3 3728 3727 3782 
3 3728 3782 3793 
3 3792 3728 3793 
3 3788 3794 3729 
3 3729 3794 3795 
3 3730 3729 3795 
3 3736 3731 3730 
3 3736 3730 3795 
3 3732 3796 3733 
3 3732 3747 3796 
3 3770 3733 3796 
3 3735 3734 3797 
3 3797 3734 3798 
3 3734 3737 3736 
3 3736 3798 3734 
3 3797 3799 3735 
3 3735 3799 3800 
3 3739 3738 3735 
3 3800 3739 3735 
3 3795 3794 3736 
3 3736 3794 3798 
3 3742 3739 3801 
3 3800 3801 3739 
3 3741 3745 3740 
3 3802 3741 3803 
3 3801 3741 3742 
3 3803 3741 3804 
3 3805 3741 3806 
3 3804 3741 3805 
3 3806 3741 3801 
3 3741 3802 3745 
3 3807 3744 3743 
3 3807 3743 3746 
3 3807 3747 3744 
3 3808 3746 3745 
3 3808 3745 3802 
3 3807 3746 3809 
3 3810 3809 3746 
3 3808 3810 3746 
3 3807 3796 3747 
3 3778 3749 3748 
3 3811 3749 3778 
3 3811 3812 3749 
3 3749 3812 3750 
3 3813 3750 3812 
3 3751 3750 3813 
3 3753 3752 3751 
3 3751 3814 3753 
3 3751 3813 3814 
3 3753 3814 3815 
3 3816 3753 3815 
3 3816 3754 3753 
3 3817 3755 3754 
3 3754 3816 3817 
3 3817 3757 3755 
3 3818 3758 3756 
3 3756 3819 3820 
3 3820 3818 3756 
3 3757 3819 3756 
3 3757 3817 3821 
3 3757 3821 3819 
3 3822 3759 3758 
3 3758 3823 3822 
3 3823 3758 3818 
3 3759 3824 3760 
3 3822 3824 3759 
3 3760 3824 3825 
3 3760 3825 3762 
3 3769 3762 3826 
3 3827 3762 3828 
3 3828 3762 3825 
3 3826 3762 3827 
3 3767 3765 3763 
3 3764 3765 3785 
3 3829 3765 3767 
3 3765 3829 3785 
3 3768 3766 3769 
3 3767 3830 3831 
3 3768 3830 3767 
3 3831 3829 3767 
3 3826 3830 3768 
3 3768 3769 3826 
3 3770 3796 3832 
3 3770 3832 3833 
3 3770 3833 3771 
3 3772 3771 3833 
3 3772 3833 3834 
3 3772 3835 3773 
3 3772 3834 3835 
3 3836 3774 3773 
3 3836 3773 3835 
3 3836 3775 3774 
3 3775 3837 3776 
3 3836 3837 3775 
3 3776 3837 3838 
3 3776 3838 3777 
3 3839 3777 3838 
3 3839 3778 3777 
3 3839 3811 3778 
3 3781 3782 3779 
3 3780 3784 3840 
3 3781 3780 3840 
3 3841 3782 3781 
3 3781 3840 3841 
3 3793 3782 3841 
3 3783 3785 3784 
3 3842 3843 3784 
3 3785 3842 3784 
3 3840 3784 3843 
3 3785 3829 3842 
3 3787 3786 3844 
3 3845 3844 3786 
3 3845 3786 3789 
3 3787 3846 3788 
3 3844 3846 3787 
3 3846 3794 3788 
3 3845 3789 3847 
3 3847 3789 3848 
3 3849 3848 3789 
3 3789 3790 3849 
3 3790 3791 3849 
3 3849 3791 3850 
3 3851 3791 3792 
3 3850 3791 3851 
3 3793 3851 3792 
3 3852 3793 3841 
3 3793 3852 3851 
3 3798 3794 3846 
3 3807 3853 3796 
3 3796 3853 3832 
3 3854 3855 3797 
3 3854 3797 3798 
3 3856 3799 3797 
3 3855 3856 3797 
3 3798 3846 3854 
3 3800 3799 3856 
3 3800 3856 3857 
3 3800 3857 3801 
3 3801 3857 3806 
3 3858 3802 3803 
3 3858 3859 3802 
3 3808 3802 3859 
3 3803 3860 3858 
3 3860 3803 3861 
3 3804 3861 3803 
3 3804 3862 3861 
3 3805 3862 3804 
3 3806 3857 3805 
3 3862 3805 3863 
3 3864 3805 3857 
3 3863 3805 3864 
3 3807 3865 3853 
3 3807 3809 3865 
3 3866 3810 3808 
3 3866 3808 3859 
3 3867 3865 3809 
3 3867 3809 3868 
3 3868 3809 3810 
3 3866 3869 3810 
3 3868 3810 3869 
3 3839 3870 3811 
3 3811 3870 3871 
3 3811 3871 3812 
3 3813 3812 3871 
3 3814 3813 3815 
3 3815 3813 3872 
3 3873 3813 3874 
3 3872 3813 3873 
3 3813 3871 3874 
3 3872 3816 3815 
3 3875 3816 3872 
3 3816 3875 3817 
3 3817 3875 3821 
3 3820 3876 3818 
3 3818 3876 3823 
3 3820 3819 3877 
3 3821 3878 3819 
3 3819 3878 3877 
3 3877 3876 3820 
3 3821 3875 3878 
3 3828 3824 3822 
3 3822 3879 3880 
3 3822 3880 3828 
3 3822 3823 3879 
3 3881 3882 3823 
3 3882 3879 3823 
3 3823 3876 3881 
3 3825 3824 3828 
3 3883 3830 3826 
3 3826 3827 3883 
3 3884 3827 3828 
3 3883 3827 3884 
3 3828 3880 3885 
3 3828 3885 3884 
3 3886 3829 3831 
3 3842 3829 3886 
3 3886 3831 3830 
3 3883 3886 3830 
3 3867 3832 3853 
3 3867 3833 3832 
3 3834 3833 3867 
3 3834 3867 3868 
3 3834 3868 3887 
3 3834 3887 3835 
3 3835 3887 3888 
3 3836 3835 3888 
3 3836 3888 3889 
3 3836 3889 3837 
3 3890 3838 3837 
3 3890 3837 3889 
3 3839 3838 3890 
3 3839 3890 3870 
3 3840 3843 3841 
3 3891 3841 3843 
3 3852 3841 3891 
3 3842 3886 3843 
3 3843 3886 3892 
3 3891 3843 3892 
3 3846 3844 3893 
3 3845 3893 3844 
3 3847 3893 3845 
3 3846 3893 3894 
3 3854 3846 3894 
3 3895 3893 3847 
3 3895 3847 3848 
3 3895 3848 3896 
3 3848 3897 3898 
3 3896 3848 3898 
3 3897 3848 3849 
3 3899 3897 3849 
3 3899 3849 3850 
3 3851 3852 3850 
3 3900 3850 3901 
3 3901 3850 3852 
3 3899 3850 3900 
3 3891 3901 3852 
3 3867 3853 3865 
3 3894 3855 3854 
3 3902 3855 3894 
3 3855 3903 3856 
3 3855 3902 3904 
3 3904 3903 3855 
3 3903 3857 3856 
3 3864 3857 3903 
3 3860 3859 3858 
3 3860 3905 3859 
3 3859 3906 3866 
3 3905 3906 3859 
3 3905 3860 3861 
3 3861 3907 3905 
3 3862 3907 3861 
3 3908 3909 3862 
3 3908 3862 3863 
3 3862 3909 3907 
3 3910 3863 3864 
3 3911 3863 3910 
3 3908 3863 3912 
3 3912 3863 3911 
3 3904 3913 3864 
3 3904 3864 3903 
3 3910 3864 3913 
3 3866 3906 3869 
3 3868 3869 3914 
3 3868 3914 3915 
3 3868 3915 3887 
3 3914 3869 3916 
3 3869 3906 3916 
3 3890 3917 3870 
3 3870 3918 3871 
3 3870 3917 3918 
3 3919 3874 3871 
3 3871 3918 3919 
3 3873 3875 3872 
3 3919 3873 3874 
3 3878 3875 3873 
3 3878 3873 3920 
3 3920 3873 3919 
3 3881 3876 3921 
3 3876 3877 3921 
3 3877 3878 3922 
3 3877 3922 3921 
3 3878 3920 3923 
3 3878 3923 3922 
3 3879 3924 3880 
3 3879 3882 3925 
3 3925 3924 3879 
3 3885 3880 3926 
3 3926 3880 3924 
3 3927 3882 3881 
3 3928 3929 3881 
3 3928 3881 3921 
3 3881 3929 3927 
3 3930 3882 3927 
3 3925 3882 3930 
3 3892 3886 3883 
3 3883 3884 3892 
3 3931 3884 3885 
3 3931 3901 3884 
3 3892 3884 3901 
3 3931 3885 3926 
3 3887 3915 3932 
3 3887 3932 3888 
3 3888 3932 3933 
3 3888 3933 3934 
3 3888 3934 3889 
3 3934 3935 3889 
3 3890 3889 3936 
3 3936 3889 3935 
3 3890 3936 3917 
3 3891 3892 3901 
3 3893 3902 3894 
3 3895 3902 3893 
3 3902 3895 3937 
3 3937 3895 3938 
3 3896 3938 3895 
3 3898 3938 3896 
3 3939 3898 3897 
3 3939 3897 3899 
3 3938 3898 3940 
3 3898 3941 3942 
3 3940 3898 3942 
3 3898 3939 3941 
3 3939 3899 3900 
3 3931 3900 3901 
3 3931 3926 3900 
3 3939 3900 3941 
